ply
        format ascii 1.0
        element vertex 65536
        property float x
        property float y
        property float z
        property uchar red
        property uchar green
        property uchar blue
        property uchar alpha
        end_header
-0.5284 0.4284 -0.2380 83 116 245 0
-0.5258 0.4302 -0.2390 86 115 245 0
-0.5232 0.4320 -0.2400 87 114 247 0
-0.5184 0.4320 -0.2400 92 114 249 0
-0.5136 0.4320 -0.2400 94 113 251 0
-0.5109 0.4338 -0.2410 96 114 252 0
-0.5061 0.4338 -0.2410 96 114 252 0
-0.5034 0.4356 -0.2420 96 114 252 0
-0.4985 0.4356 -0.2420 98 116 254 0
-0.4937 0.4356 -0.2420 100 116 253 0
-0.4888 0.4356 -0.2420 102 115 253 0
-0.4860 0.4374 -0.2430 102 114 252 0
-0.4811 0.4374 -0.2430 105 112 252 0
-0.4763 0.4374 -0.2430 108 111 250 0
-0.4714 0.4374 -0.2430 109 110 250 0
-0.4685 0.4392 -0.2440 111 110 250 0
-0.4636 0.4392 -0.2440 113 110 251 0
-0.4587 0.4392 -0.2440 116 111 253 0
-0.4538 0.4392 -0.2440 119 110 253 0
-0.4490 0.4392 -0.2440 122 110 254 0
-0.4441 0.4392 -0.2440 124 109 254 0
-0.4392 0.4392 -0.2440 126 108 254 0
-0.4343 0.4392 -0.2440 129 107 254 0
-0.4294 0.4392 -0.2440 130 106 254 0
-0.4246 0.4392 -0.2440 130 104 253 0
-0.4197 0.4392 -0.2440 131 102 252 0
-0.4148 0.4392 -0.2440 134 101 252 0
-0.4099 0.4392 -0.2440 135 100 252 0
-0.4050 0.4392 -0.2440 136 100 252 0
-0.4002 0.4392 -0.2440 138 99 252 0
-0.3953 0.4392 -0.2440 138 97 251 0
-0.3904 0.4392 -0.2440 140 95 250 0
-0.3839 0.4374 -0.2430 140 93 249 0
-0.3791 0.4374 -0.2430 142 90 250 0
-0.3742 0.4374 -0.2430 142 88 248 0
-0.3709 0.4392 -0.2440 141 85 248 0
-0.3660 0.4392 -0.2440 139 83 246 0
-0.3596 0.4374 -0.2430 138 79 245 0
-0.3548 0.4374 -0.2430 139 78 244 0
-0.3514 0.4392 -0.2440 138 76 245 0
-0.3451 0.4374 -0.2430 138 72 240 0
-0.3402 0.4374 -0.2430 137 68 237 0
-0.3353 0.4374 -0.2430 138 64 235 0
-0.3305 0.4374 -0.2430 140 60 233 0
-0.3256 0.4374 -0.2430 143 57 230 0
-0.3208 0.4374 -0.2430 142 52 227 0
-0.3159 0.4374 -0.2430 143 49 223 0
-0.3098 0.4356 -0.2420 142 44 219 0
-0.3062 0.4374 -0.2430 143 43 217 0
-0.3013 0.4374 -0.2430 138 38 212 0
-0.2965 0.4374 -0.2430 129 30 201 0
-0.2916 0.4374 -0.2430 118 21 189 0
-0.2879 0.4392 -0.2440 109 13 181 0
-0.2854 0.4428 -0.2460 103 10 176 0
-0.2827 0.4464 -0.2480 101 10 175 0
-0.2789 0.4482 -0.2490 104 17 182 0
-0.2750 0.4500 -0.2500 104 22 185 0
-0.2711 0.4518 -0.2510 107 26 191 0
-0.2661 0.4518 -0.2510 106 27 194 0
-0.2610 0.4518 -0.2510 105 26 197 0
-0.2560 0.4518 -0.2510 106 26 199 0
-0.2510 0.4518 -0.2510 108 28 203 0
-0.2460 0.4518 -0.2510 110 30 205 0
-0.2410 0.4518 -0.2510 112 29 207 0
-0.2359 0.4518 -0.2510 113 30 206 0
-0.2309 0.4518 -0.2510 111 31 208 0
-0.2259 0.4518 -0.2510 112 32 207 0
-0.2209 0.4518 -0.2510 113 33 210 0
-0.2159 0.4518 -0.2510 113 33 210 0
-0.2108 0.4518 -0.2510 115 35 212 0
-0.2058 0.4518 -0.2510 115 35 212 0
-0.2016 0.4536 -0.2520 117 36 216 0
-0.1966 0.4536 -0.2520 117 36 216 0
-0.1915 0.4536 -0.2520 118 37 217 0
-0.1865 0.4536 -0.2520 118 37 217 0
-0.1814 0.4536 -0.2520 119 38 218 0
-0.1764 0.4536 -0.2520 120 39 219 0
-0.1714 0.4536 -0.2520 122 41 221 0
-0.1663 0.4536 -0.2520 123 42 222 0
-0.1613 0.4536 -0.2520 123 44 223 0
-0.1562 0.4536 -0.2520 125 46 225 0
-0.1518 0.4554 -0.2530 127 48 227 0
-0.1467 0.4554 -0.2530 128 51 229 0
-0.1417 0.4554 -0.2530 129 52 230 0
-0.1366 0.4554 -0.2530 128 53 231 0
-0.1316 0.4554 -0.2530 132 55 233 0
-0.1270 0.4572 -0.2540 133 56 232 0
-0.1219 0.4572 -0.2540 135 58 234 0
-0.1168 0.4572 -0.2540 137 59 233 0
-0.1118 0.4572 -0.2540 140 60 235 0
-0.1067 0.4572 -0.2540 144 62 235 0
-0.1016 0.4572 -0.2540 147 63 236 0
-0.0965 0.4572 -0.2540 152 66 237 0
-0.0911 0.4554 -0.2530 154 68 239 0
-0.0860 0.4554 -0.2530 156 69 236 0
-0.0806 0.4536 -0.2520 157 70 235 0
-0.0756 0.4536 -0.2520 160 72 236 0
-0.0706 0.4536 -0.2520 162 74 238 0
-0.0653 0.4518 -0.2510 164 76 238 0
-0.0600 0.4500 -0.2500 165 77 237 0
-0.0550 0.4500 -0.2500 166 81 237 0
-0.0498 0.4482 -0.2490 167 83 239 0
-0.0448 0.4482 -0.2490 168 85 239 0
-0.0397 0.4464 -0.2480 168 87 242 0
-0.0346 0.4446 -0.2470 167 88 241 0
-0.0295 0.4428 -0.2460 165 88 242 0
-0.0245 0.4410 -0.2450 164 89 242 0
-0.0196 0.4410 -0.2450 163 90 242 0
-0.0146 0.4392 -0.2440 162 88 243 0
-0.0097 0.4374 -0.2430 159 88 242 0
-0.0049 0.4374 -0.2430 157 86 242 0
0.0000 0.4356 -0.2420 153 83 244 0
0.0048 0.4338 -0.2410 151 80 244 0
0.0096 0.4338 -0.2410 146 78 243 0
0.0144 0.4320 -0.2400 141 74 241 0
0.0192 0.4320 -0.2400 136 70 240 0
0.0239 0.4302 -0.2390 133 67 239 0
0.0287 0.4302 -0.2390 128 64 238 0
0.0335 0.4302 -0.2390 124 62 235 0
0.0382 0.4302 -0.2390 121 58 233 0
0.0430 0.4302 -0.2390 117 57 231 0
0.0478 0.4302 -0.2390 112 54 227 0
0.0526 0.4302 -0.2390 106 52 224 0
0.0574 0.4302 -0.2390 102 50 223 0
0.0621 0.4302 -0.2390 97 47 220 0
0.0672 0.4320 -0.2400 93 45 219 0
0.0720 0.4320 -0.2400 90 44 215 0
0.0768 0.4320 -0.2400 88 42 213 0
0.0819 0.4338 -0.2410 87 41 210 0
0.0871 0.4356 -0.2420 85 39 208 0
0.0923 0.4374 -0.2430 84 38 207 0
0.0972 0.4374 -0.2430 82 39 206 0
0.1025 0.4392 -0.2440 81 38 205 0
0.1082 0.4428 -0.2460 80 37 204 0
0.1136 0.4446 -0.2470 78 37 203 0
0.1190 0.4464 -0.2480 78 37 203 0
0.1250 0.4500 -0.2500 78 37 203 0
0.1305 0.4518 -0.2510 77 36 202 0
0.1366 0.4554 -0.2530 77 36 202 0
0.1417 0.4554 -0.2530 78 35 202 0
0.1473 0.4572 -0.2540 78 35 202 0
0.1530 0.4590 -0.2550 78 35 202 0
0.1581 0.4590 -0.2550 78 35 202 0
0.1632 0.4590 -0.2550 79 36 203 0
0.1683 0.4590 -0.2550 79 36 203 0
0.1734 0.4590 -0.2550 82 36 204 0
0.1785 0.4590 -0.2550 84 37 205 0
0.1836 0.4590 -0.2550 86 37 206 0
0.1887 0.4590 -0.2550 88 36 206 0
0.1938 0.4590 -0.2550 92 36 208 0
0.1989 0.4590 -0.2550 92 36 208 0
0.2032 0.4572 -0.2540 95 37 210 0
0.2091 0.4590 -0.2550 96 36 210 0
0.2142 0.4590 -0.2550 98 35 210 0
0.2193 0.4590 -0.2550 100 36 211 0
0.2244 0.4590 -0.2550 103 36 212 0
0.2295 0.4590 -0.2550 105 36 213 0
0.2346 0.4590 -0.2550 107 37 214 0
0.2397 0.4590 -0.2550 109 36 213 0
0.2448 0.4590 -0.2550 110 37 212 0
0.2499 0.4590 -0.2550 111 37 212 0
0.2550 0.4590 -0.2550 115 38 214 0
0.2601 0.4590 -0.2550 116 37 214 0
0.2652 0.4590 -0.2550 120 37 213 0
0.2703 0.4590 -0.2550 121 37 213 0
0.2754 0.4590 -0.2550 123 36 213 0
0.2805 0.4590 -0.2550 125 36 214 0
0.2856 0.4590 -0.2550 127 36 215 0
0.2907 0.4590 -0.2550 129 36 215 0
0.2958 0.4590 -0.2550 130 37 216 0
0.3009 0.4590 -0.2550 132 37 215 0
0.3060 0.4590 -0.2550 134 37 214 0
0.3111 0.4590 -0.2550 136 38 213 0
0.3162 0.4590 -0.2550 138 38 212 0
0.3213 0.4590 -0.2550 142 38 211 0
0.3264 0.4590 -0.2550 147 39 211 0
0.3315 0.4590 -0.2550 150 36 210 0
0.3366 0.4590 -0.2550 154 34 209 0
0.3417 0.4590 -0.2550 161 33 208 0
0.3468 0.4590 -0.2550 165 31 206 0
0.3505 0.4572 -0.2540 168 30 203 0
0.3570 0.4590 -0.2550 165 29 199 0
0.3621 0.4590 -0.2550 159 28 196 0
0.3672 0.4590 -0.2550 151 25 194 0
0.3723 0.4590 -0.2550 145 27 199 0
0.3774 0.4590 -0.2550 139 31 205 0
0.3825 0.4590 -0.2550 132 35 212 0
0.3876 0.4590 -0.2550 129 40 218 0
0.3927 0.4590 -0.2550 124 45 222 0
0.3978 0.4590 -0.2550 123 50 225 0
0.4029 0.4590 -0.2550 121 54 229 0
0.4080 0.4590 -0.2550 121 59 232 0
0.4131 0.4590 -0.2550 121 61 234 0
0.4182 0.4590 -0.2550 124 64 237 0
0.4233 0.4590 -0.2550 126 66 239 0
0.4284 0.4590 -0.2550 127 67 240 0
0.4335 0.4590 -0.2550 129 69 242 0
0.4386 0.4590 -0.2550 133 71 242 0
0.4437 0.4590 -0.2550 134 72 243 0
0.4488 0.4590 -0.2550 137 74 243 0
0.4539 0.4590 -0.2550 138 75 244 0
0.4590 0.4590 -0.2550 141 75 243 0
0.4641 0.4590 -0.2550 143 76 244 0
0.4692 0.4590 -0.2550 144 77 244 0
0.4743 0.4590 -0.2550 146 77 245 0
0.4794 0.4590 -0.2550 147 79 244 0
0.4845 0.4590 -0.2550 148 80 245 0
0.4896 0.4590 -0.2550 151 80 244 0
0.4947 0.4590 -0.2550 152 82 243 0
0.4998 0.4590 -0.2550 157 82 243 0
0.5049 0.4590 -0.2550 158 83 244 0
0.5100 0.4590 -0.2550 160 82 243 0
0.5151 0.4590 -0.2550 161 84 242 0
0.5202 0.4590 -0.2550 166 85 242 0
0.5253 0.4590 -0.2550 167 86 241 0
0.5304 0.4590 -0.2550 172 87 242 0
0.5334 0.4572 -0.2540 173 89 239 0
0.5364 0.4554 -0.2530 177 88 240 0
0.5393 0.4536 -0.2520 179 89 238 0
0.5422 0.4518 -0.2510 182 90 237 0
0.5450 0.4500 -0.2500 184 90 236 0
0.5456 0.4464 -0.2480 187 89 236 0
0.5483 0.4446 -0.2470 188 90 235 0
0.5510 0.4428 -0.2460 190 91 234 0
0.5537 0.4410 -0.2450 191 92 234 0
0.5540 0.4374 -0.2430 194 91 234 0
0.5566 0.4356 -0.2420 195 90 232 0
0.5568 0.4320 -0.2400 195 92 227 0
0.5593 0.4302 -0.2390 198 90 225 0
0.5593 0.4266 -0.2370 201 87 224 0
0.5593 0.4230 -0.2350 202 86 223 0
0.5616 0.4212 -0.2340 202 86 223 0
0.5566 0.4140 -0.2300 203 87 220 0
0.5563 0.4104 -0.2280 206 87 217 0
0.5633 0.4122 -0.2290 197 91 201 0
0.5555 0.4032 -0.2240 183 103 174 0
0.0025 0.0018 -0.0010 30 0 20 0
0.0000 0.0000 -0.0000 10 0 5 0
0.0000 0.0000 -0.0000 0 1 0 0
-0.0000 0.0000 -0.0000 0 1 0 0
-0.0000 0.0000 -0.0000 0 1 0 0
-0.0000 0.0000 -0.0000 0 0 0 0
-0.0000 0.0000 -0.0000 0 0 0 0
-0.0000 0.0000 -0.0000 1 0 0 0
-0.0000 0.0000 -0.0000 0 0 0 0
-0.0000 0.0000 -0.0000 0 1 0 0
-0.0000 0.0000 -0.0000 0 1 0 0
-0.0000 0.0000 -0.0000 1 0 0 0
-0.0024 0.0018 -0.0010 1 1 1 0
-0.0000 0.0000 -0.0000 0 1 0 0
-0.0000 0.0000 -0.0000 0 0 0 0
-0.0023 0.0018 -0.0010 3 0 0 0
-0.0000 0.0000 -0.0000 0 1 19 0
-0.0046 0.0036 -0.0020 0 0 51 0
-0.5311 0.4183 -0.2350 79 105 190 0
-0.5309 0.4219 -0.2370 82 109 226 0
-0.5284 0.4236 -0.2380 87 115 248 0
-0.5258 0.4254 -0.2390 87 114 247 0
-0.5232 0.4272 -0.2400 88 112 246 0
-0.5184 0.4272 -0.2400 93 112 250 0
-0.5136 0.4272 -0.2400 94 113 251 0
-0.5109 0.4290 -0.2410 96 114 252 0
-0.5061 0.4290 -0.2410 97 115 253 0
-0.5034 0.4308 -0.2420 96 114 252 0
-0.4985 0.4308 -0.2420 97 115 253 0
-0.4937 0.4308 -0.2420 100 116 253 0
-0.4888 0.4308 -0.2420 102 115 253 0
-0.4860 0.4325 -0.2430 104 113 252 0
-0.4811 0.4325 -0.2430 104 111 251 0
-0.4763 0.4325 -0.2430 107 110 249 0
-0.4714 0.4325 -0.2430 109 110 250 0
-0.4685 0.4343 -0.2440 111 110 250 0
-0.4636 0.4343 -0.2440 113 110 251 0
-0.4587 0.4343 -0.2440 115 110 252 0
-0.4538 0.4343 -0.2440 118 111 253 0
-0.4490 0.4343 -0.2440 122 110 254 0
-0.4441 0.4343 -0.2440 123 109 254 0
-0.4392 0.4343 -0.2440 126 108 254 0
-0.4343 0.4343 -0.2440 127 107 254 0
-0.4294 0.4343 -0.2440 129 107 254 0
-0.4246 0.4343 -0.2440 131 105 254 0
-0.4197 0.4343 -0.2440 132 103 253 0
-0.4148 0.4343 -0.2440 132 102 252 0
-0.4099 0.4343 -0.2440 134 101 252 0
-0.4050 0.4343 -0.2440 135 100 252 0
-0.4002 0.4343 -0.2440 138 99 252 0
-0.3953 0.4343 -0.2440 138 97 251 0
-0.3904 0.4343 -0.2440 140 95 250 0
-0.3855 0.4343 -0.2440 139 92 248 0
-0.3791 0.4325 -0.2430 141 89 249 0
-0.3758 0.4343 -0.2440 139 87 249 0
-0.3709 0.4343 -0.2440 139 84 247 0
-0.3660 0.4343 -0.2440 138 81 246 0
-0.3611 0.4343 -0.2440 137 78 246 0
-0.3562 0.4343 -0.2440 136 77 245 0
-0.3528 0.4361 -0.2450 136 74 243 0
-0.3465 0.4343 -0.2440 134 71 240 0
-0.3416 0.4343 -0.2440 134 66 239 0
-0.3367 0.4343 -0.2440 134 62 234 0
-0.3318 0.4343 -0.2440 135 57 231 0
-0.3270 0.4343 -0.2440 136 52 226 0
-0.3221 0.4343 -0.2440 135 46 222 0
-0.3185 0.4361 -0.2450 136 43 219 0
-0.3136 0.4361 -0.2450 133 41 214 0
-0.3087 0.4361 -0.2450 124 32 203 0
-0.3050 0.4379 -0.2460 115 21 193 0
-0.3001 0.4379 -0.2460 108 16 187 0
-0.2952 0.4379 -0.2460 106 14 185 0
-0.2926 0.4414 -0.2480 103 14 184 0
-0.2912 0.4468 -0.2510 106 18 188 0
-0.2884 0.4503 -0.2530 109 26 196 0
-0.2822 0.4486 -0.2520 108 26 196 0
-0.2783 0.4503 -0.2530 105 27 198 0
-0.2743 0.4521 -0.2540 105 29 199 0
-0.2692 0.4521 -0.2540 106 30 201 0
-0.2631 0.4503 -0.2530 107 31 202 0
-0.2581 0.4503 -0.2530 109 32 206 0
-0.2540 0.4521 -0.2540 109 32 208 0
-0.2499 0.4539 -0.2550 109 30 207 0
-0.2419 0.4486 -0.2520 112 32 209 0
-0.2378 0.4503 -0.2530 113 33 210 0
-0.2328 0.4503 -0.2530 114 33 213 0
-0.2286 0.4521 -0.2540 115 35 212 0
-0.2235 0.4521 -0.2540 116 35 215 0
-0.2184 0.4521 -0.2540 116 37 214 0
-0.2134 0.4521 -0.2540 118 38 215 0
-0.2083 0.4521 -0.2540 119 39 216 0
-0.2032 0.4521 -0.2540 119 38 218 0
-0.1981 0.4521 -0.2540 120 39 219 0
-0.1930 0.4521 -0.2540 120 39 219 0
-0.1880 0.4521 -0.2540 120 39 219 0
-0.1829 0.4521 -0.2540 121 40 220 0
-0.1778 0.4521 -0.2540 122 41 221 0
-0.1727 0.4521 -0.2540 124 43 223 0
-0.1676 0.4521 -0.2540 125 44 224 0
-0.1626 0.4521 -0.2540 126 45 225 0
-0.1575 0.4521 -0.2540 127 48 227 0
-0.1530 0.4539 -0.2550 129 50 229 0
-0.1479 0.4539 -0.2550 131 52 231 0
-0.1422 0.4521 -0.2540 132 53 232 0
-0.1372 0.4521 -0.2540 132 55 233 0
-0.1326 0.4539 -0.2550 133 56 232 0
-0.1275 0.4539 -0.2550 135 56 233 0
-0.1224 0.4539 -0.2550 137 59 233 0
-0.1173 0.4539 -0.2550 139 59 232 0
-0.1122 0.4539 -0.2550 143 61 234 0
-0.1071 0.4539 -0.2550 146 62 235 0
-0.1020 0.4539 -0.2550 150 64 235 0
-0.0969 0.4539 -0.2550 153 65 235 0
-0.0914 0.4521 -0.2540 156 68 238 0
-0.0864 0.4521 -0.2540 158 69 237 0
-0.0810 0.4503 -0.2530 160 72 236 0
-0.0759 0.4503 -0.2530 161 73 235 0
-0.0708 0.4503 -0.2530 165 74 237 0
-0.0655 0.4486 -0.2520 165 77 237 0
-0.0602 0.4468 -0.2510 167 80 237 0
-0.0550 0.4450 -0.2500 169 82 238 0
-0.0500 0.4450 -0.2500 170 85 240 0
-0.0448 0.4432 -0.2490 170 87 239 0
-0.0397 0.4414 -0.2480 169 88 242 0
-0.0347 0.4414 -0.2480 169 90 243 0
-0.0296 0.4397 -0.2470 167 91 243 0
-0.0246 0.4379 -0.2460 164 91 242 0
-0.0196 0.4361 -0.2450 162 92 243 0
-0.0147 0.4361 -0.2450 160 91 242 0
-0.0098 0.4343 -0.2440 159 90 243 0
-0.0049 0.4325 -0.2430 155 88 243 0
0.0000 0.4308 -0.2420 152 84 245 0
0.0048 0.4308 -0.2420 149 82 247 0
0.0097 0.4308 -0.2420 144 79 245 0
0.0145 0.4290 -0.2410 138 75 242 0
0.0193 0.4290 -0.2410 134 70 242 0
0.0241 0.4290 -0.2410 130 68 239 0
0.0288 0.4272 -0.2400 125 65 238 0
0.0336 0.4272 -0.2400 121 63 235 0
0.0384 0.4272 -0.2400 117 61 233 0
0.0432 0.4272 -0.2400 113 59 231 0
0.0480 0.4272 -0.2400 109 55 227 0
0.0528 0.4272 -0.2400 102 53 223 0
0.0576 0.4272 -0.2400 98 50 222 0
0.0627 0.4290 -0.2410 93 49 220 0
0.0675 0.4290 -0.2410 89 45 218 0
0.0726 0.4308 -0.2420 86 44 214 0
0.0774 0.4308 -0.2420 84 42 212 0
0.0826 0.4325 -0.2430 83 42 209 0
0.0878 0.4343 -0.2440 82 41 208 0
0.0931 0.4361 -0.2450 81 40 207 0
0.0984 0.4379 -0.2460 79 41 206 0
0.1037 0.4397 -0.2470 78 40 205 0
0.1091 0.4414 -0.2480 77 39 204 0
0.1145 0.4432 -0.2490 76 38 203 0
0.1200 0.4450 -0.2500 76 38 203 0
0.1255 0.4468 -0.2510 78 37 203 0
0.1316 0.4503 -0.2530 78 37 203 0
0.1372 0.4521 -0.2540 78 37 203 0
0.1428 0.4539 -0.2550 79 36 203 0
0.1479 0.4539 -0.2550 80 37 204 0
0.1530 0.4539 -0.2550 80 37 204 0
0.1581 0.4539 -0.2550 80 37 204 0
0.1626 0.4521 -0.2540 80 37 204 0
0.1683 0.4539 -0.2550 80 37 204 0
0.1734 0.4539 -0.2550 84 37 205 0
0.1785 0.4539 -0.2550 85 38 206 0
0.1836 0.4539 -0.2550 89 37 207 0
0.1887 0.4539 -0.2550 89 37 207 0
0.1938 0.4539 -0.2550 93 37 209 0
0.1989 0.4539 -0.2550 93 37 209 0
0.2040 0.4539 -0.2550 96 38 211 0
0.2091 0.4539 -0.2550 96 38 211 0
0.2142 0.4539 -0.2550 97 37 211 0
0.2193 0.4539 -0.2550 100 37 212 0
0.2244 0.4539 -0.2550 102 38 213 0
0.2295 0.4539 -0.2550 105 38 214 0
0.2346 0.4539 -0.2550 107 38 215 0
0.2397 0.4539 -0.2550 109 39 216 0
0.2448 0.4539 -0.2550 111 38 215 0
0.2499 0.4539 -0.2550 113 38 216 0
0.2550 0.4539 -0.2550 116 39 217 0
0.2601 0.4539 -0.2550 118 39 216 0
0.2652 0.4539 -0.2550 119 39 216 0
0.2703 0.4539 -0.2550 121 38 216 0
0.2754 0.4539 -0.2550 125 37 217 0
0.2805 0.4539 -0.2550 125 38 215 0
0.2856 0.4539 -0.2550 128 39 217 0
0.2907 0.4539 -0.2550 130 39 218 0
0.2958 0.4539 -0.2550 133 40 219 0
0.3009 0.4539 -0.2550 133 40 217 0
0.3060 0.4539 -0.2550 137 40 215 0
0.3111 0.4539 -0.2550 138 42 214 0
0.3162 0.4539 -0.2550 141 41 215 0
0.3213 0.4539 -0.2550 144 42 214 0
0.3264 0.4539 -0.2550 147 40 214 0
0.3315 0.4539 -0.2550 150 40 215 0
0.3366 0.4539 -0.2550 155 38 215 0
0.3417 0.4539 -0.2550 158 35 212 0
0.3468 0.4539 -0.2550 162 33 211 0
0.3519 0.4539 -0.2550 166 33 208 0
0.3570 0.4539 -0.2550 166 32 204 0
0.3621 0.4539 -0.2550 164 33 201 0
0.3672 0.4539 -0.2550 162 31 199 0
0.3723 0.4539 -0.2550 156 30 199 0
0.3774 0.4539 -0.2550 149 29 202 0
0.3825 0.4539 -0.2550 143 31 204 0
0.3876 0.4539 -0.2550 139 34 212 0
0.3927 0.4539 -0.2550 134 39 217 0
0.3978 0.4539 -0.2550 133 44 222 0
0.4029 0.4539 -0.2550 129 49 226 0
0.4080 0.4539 -0.2550 129 55 230 0
0.4131 0.4539 -0.2550 128 58 232 0
0.4182 0.4539 -0.2550 129 61 236 0
0.4233 0.4539 -0.2550 130 64 236 0
0.4284 0.4539 -0.2550 132 65 240 0
0.4335 0.4539 -0.2550 132 68 240 0
0.4386 0.4539 -0.2550 134 70 242 0
0.4437 0.4539 -0.2550 136 73 242 0
0.4488 0.4539 -0.2550 138 75 244 0
0.4539 0.4539 -0.2550 139 76 243 0
0.4590 0.4539 -0.2550 142 76 244 0
0.4641 0.4539 -0.2550 143 78 244 0
0.4692 0.4539 -0.2550 145 78 245 0
0.4743 0.4539 -0.2550 147 78 246 0
0.4794 0.4539 -0.2550 148 80 245 0
0.4845 0.4539 -0.2550 149 81 244 0
0.4896 0.4539 -0.2550 152 82 243 0
0.4947 0.4539 -0.2550 153 83 242 0
0.4998 0.4539 -0.2550 158 83 244 0
0.5049 0.4539 -0.2550 159 85 244 0
0.5100 0.4539 -0.2550 161 83 244 0
0.5151 0.4539 -0.2550 162 85 243 0
0.5202 0.4539 -0.2550 167 86 243 0
0.5253 0.4539 -0.2550 169 88 242 0
0.5304 0.4539 -0.2550 172 87 240 0
0.5334 0.4521 -0.2540 173 89 239 0
0.5364 0.4503 -0.2530 177 88 238 0
0.5393 0.4486 -0.2520 179 89 238 0
0.5422 0.4468 -0.2510 183 91 238 0
0.5450 0.4450 -0.2500 185 91 237 0
0.5478 0.4432 -0.2490 188 90 235 0
0.5506 0.4414 -0.2480 188 91 233 0
0.5533 0.4397 -0.2470 190 91 233 0
0.5537 0.4361 -0.2450 193 92 234 0
0.5563 0.4343 -0.2440 194 91 234 0
0.5566 0.4308 -0.2420 194 89 231 0
0.5591 0.4290 -0.2410 196 90 226 0
0.5616 0.4272 -0.2400 197 89 224 0
0.5593 0.4219 -0.2370 200 88 224 0
0.5617 0.4201 -0.2360 200 86 223 0
0.5640 0.4183 -0.2350 203 87 224 0
0.5614 0.4130 -0.2320 203 87 222 0
0.5612 0.4094 -0.2300 199 82 214 0
0.5609 0.4058 -0.2280 196 92 203 0
0.5555 0.3987 -0.2240 180 102 177 0
0.0000 0.0000 -0.0000 29 0 21 0
0.0025 0.0018 -0.0010 11 0 6 0
0.0000 0.0000 -0.0000 0 0 0 0
-0.0000 0.0000 -0.0000 0 0 0 0
-0.0000 0.0000 -0.0000 0 0 0 0
-0.0000 0.0000 -0.0000 1 0 0 0
-0.0000 0.0000 -0.0000 1 0 0 0
-0.0000 0.0000 -0.0000 3 0 0 0
-0.0000 0.0000 -0.0000 1 0 0 0
-0.0000 0.0000 -0.0000 0 1 0 0
-0.0000 0.0000 -0.0000 0 1 0 0
-0.0000 0.0000 -0.0000 1 1 3 0
-0.0000 0.0000 -0.0000 1 0 0 0
-0.0000 0.0000 -0.0000 0 0 0 0
-0.0000 0.0000 -0.0000 1 1 0 0
-0.0000 0.0000 -0.0000 3 0 0 0
-0.0023 0.0018 -0.0010 0 0 14 0
-0.0000 0.0000 -0.0000 0 0 53 0
-0.5334 0.4154 -0.2360 79 103 191 0
-0.5309 0.4171 -0.2370 84 109 228 0
-0.5284 0.4189 -0.2380 87 111 247 0
-0.5236 0.4189 -0.2380 89 111 248 0
-0.5210 0.4206 -0.2390 91 110 248 0
-0.5184 0.4224 -0.2400 93 112 250 0
-0.5157 0.4242 -0.2410 95 113 251 0
-0.5109 0.4242 -0.2410 96 112 251 0
-0.5061 0.4242 -0.2410 97 113 252 0
-0.5034 0.4259 -0.2420 97 115 251 0
-0.4985 0.4259 -0.2420 97 115 251 0
-0.4937 0.4259 -0.2420 99 115 252 0
-0.4888 0.4259 -0.2420 101 114 252 0
-0.4860 0.4277 -0.2430 104 113 250 0
-0.4811 0.4277 -0.2430 105 113 250 0
-0.4782 0.4294 -0.2440 108 111 250 0
-0.4734 0.4294 -0.2440 109 110 250 0
-0.4685 0.4294 -0.2440 112 111 251 0
-0.4636 0.4294 -0.2440 113 110 251 0
-0.4587 0.4294 -0.2440 115 110 252 0
-0.4538 0.4294 -0.2440 118 111 253 0
-0.4490 0.4294 -0.2440 122 110 254 0
-0.4441 0.4294 -0.2440 123 109 254 0
-0.4392 0.4294 -0.2440 126 108 254 0
-0.4361 0.4312 -0.2450 127 107 254 0
-0.4294 0.4294 -0.2440 130 108 255 0
-0.4246 0.4294 -0.2440 132 106 255 0
-0.4214 0.4312 -0.2450 133 104 254 0
-0.4165 0.4312 -0.2450 133 103 253 0
-0.4116 0.4312 -0.2450 134 101 252 0
-0.4067 0.4312 -0.2450 135 100 252 0
-0.4018 0.4312 -0.2450 138 99 254 0
-0.3969 0.4312 -0.2450 138 97 253 0
-0.3920 0.4312 -0.2450 141 95 253 0
-0.3871 0.4312 -0.2450 140 93 251 0
-0.3822 0.4312 -0.2450 141 89 251 0
-0.3773 0.4312 -0.2450 138 86 248 0
-0.3724 0.4312 -0.2450 138 83 247 0
-0.3675 0.4312 -0.2450 135 80 246 0
-0.3626 0.4312 -0.2450 134 77 244 0
-0.3577 0.4312 -0.2450 132 74 244 0
-0.3528 0.4312 -0.2450 130 71 241 0
-0.3479 0.4312 -0.2450 129 67 238 0
-0.3430 0.4312 -0.2450 129 62 237 0
-0.3395 0.4330 -0.2460 127 57 231 0
-0.3346 0.4330 -0.2460 127 50 226 0
-0.3310 0.4347 -0.2470 128 45 221 0
-0.3260 0.4347 -0.2470 127 40 217 0
-0.3211 0.4347 -0.2470 122 33 209 0
-0.3162 0.4347 -0.2470 115 27 199 0
-0.3125 0.4365 -0.2480 111 25 196 0
-0.3088 0.4382 -0.2490 109 21 193 0
-0.3062 0.4418 -0.2510 107 21 194 0
-0.3024 0.4435 -0.2520 107 23 196 0
-0.2985 0.4453 -0.2530 109 27 200 0
-0.2946 0.4470 -0.2540 108 28 201 0
-0.2896 0.4470 -0.2540 107 29 203 0
-0.2856 0.4488 -0.2550 107 30 204 0
-0.2805 0.4488 -0.2550 106 32 207 0
-0.2754 0.4488 -0.2550 106 33 208 0
-0.2703 0.4488 -0.2550 105 32 207 0
-0.2652 0.4488 -0.2550 105 32 207 0
-0.2601 0.4488 -0.2550 106 33 208 0
-0.2550 0.4488 -0.2550 108 33 211 0
-0.2499 0.4488 -0.2550 110 35 213 0
-0.2448 0.4488 -0.2550 113 34 213 0
-0.2397 0.4488 -0.2550 114 35 214 0
-0.2346 0.4488 -0.2550 115 36 216 0
-0.2295 0.4488 -0.2550 115 36 215 0
-0.2244 0.4488 -0.2550 116 37 217 0
-0.2193 0.4488 -0.2550 115 38 216 0
-0.2142 0.4488 -0.2550 117 38 217 0
-0.2091 0.4488 -0.2550 118 39 218 0
-0.2040 0.4488 -0.2550 120 41 220 0
-0.1989 0.4488 -0.2550 120 41 220 0
-0.1938 0.4488 -0.2550 120 41 220 0
-0.1887 0.4488 -0.2550 120 41 220 0
-0.1836 0.4488 -0.2550 122 41 221 0
-0.1785 0.4488 -0.2550 124 43 223 0
-0.1734 0.4488 -0.2550 127 44 224 0
-0.1683 0.4488 -0.2550 126 45 225 0
-0.1632 0.4488 -0.2550 128 48 225 0
-0.1581 0.4488 -0.2550 129 49 226 0
-0.1530 0.4488 -0.2550 131 51 228 0
-0.1479 0.4488 -0.2550 132 53 230 0
-0.1428 0.4488 -0.2550 133 54 231 0
-0.1377 0.4488 -0.2550 133 54 231 0
-0.1326 0.4488 -0.2550 134 55 232 0
-0.1275 0.4488 -0.2550 136 56 233 0
-0.1224 0.4488 -0.2550 138 58 233 0
-0.1173 0.4488 -0.2550 142 60 233 0
-0.1122 0.4488 -0.2550 145 61 235 0
-0.1071 0.4488 -0.2550 149 63 236 0
-0.1020 0.4488 -0.2550 152 64 236 0
-0.0969 0.4488 -0.2550 155 66 236 0
-0.0918 0.4488 -0.2550 158 69 239 0
-0.0867 0.4488 -0.2550 162 71 237 0
-0.0813 0.4470 -0.2540 163 72 235 0
-0.0762 0.4470 -0.2540 165 75 235 0
-0.0708 0.4453 -0.2530 169 77 238 0
-0.0655 0.4435 -0.2520 170 80 238 0
-0.0602 0.4418 -0.2510 172 82 239 0
-0.0552 0.4418 -0.2510 172 86 239 0
-0.0500 0.4400 -0.2500 174 88 241 0
-0.0450 0.4400 -0.2500 173 89 239 0
-0.0398 0.4382 -0.2490 174 91 243 0
-0.0347 0.4365 -0.2480 171 92 243 0
-0.0296 0.4347 -0.2470 170 94 244 0
-0.0247 0.4347 -0.2470 168 95 246 0
-0.0197 0.4330 -0.2460 165 95 246 0
-0.0148 0.4330 -0.2460 164 95 246 0
-0.0098 0.4312 -0.2450 159 93 245 0
-0.0049 0.4294 -0.2440 156 91 245 0
0.0000 0.4277 -0.2430 154 88 248 0
0.0048 0.4259 -0.2420 149 84 248 0
0.0097 0.4259 -0.2420 142 79 245 0
0.0145 0.4259 -0.2420 137 76 242 0
0.0194 0.4259 -0.2420 132 73 243 0
0.0241 0.4242 -0.2410 128 70 242 0
0.0289 0.4242 -0.2410 123 67 239 0
0.0337 0.4242 -0.2410 119 65 237 0
0.0386 0.4242 -0.2410 115 63 236 0
0.0434 0.4242 -0.2410 110 60 233 0
0.0482 0.4242 -0.2410 106 56 229 0
0.0530 0.4242 -0.2410 100 54 225 0
0.0581 0.4259 -0.2420 95 51 222 0
0.0629 0.4259 -0.2420 89 50 219 0
0.0680 0.4277 -0.2430 86 47 218 0
0.0729 0.4277 -0.2430 83 46 214 0
0.0781 0.4294 -0.2440 79 43 211 0
0.0833 0.4312 -0.2450 78 43 208 0
0.0886 0.4330 -0.2460 77 42 206 0
0.0939 0.4347 -0.2470 76 41 205 0
0.0992 0.4365 -0.2480 77 40 205 0
0.1046 0.4382 -0.2490 76 39 204 0
0.1100 0.4400 -0.2500 75 38 203 0
0.1155 0.4418 -0.2510 75 38 203 0
0.1219 0.4470 -0.2540 75 38 203 0
0.1270 0.4470 -0.2540 75 37 202 0
0.1321 0.4470 -0.2540 75 37 202 0
0.1377 0.4488 -0.2550 75 37 202 0
0.1428 0.4488 -0.2550 77 36 202 0
0.1479 0.4488 -0.2550 78 37 203 0
0.1530 0.4488 -0.2550 80 37 204 0
0.1581 0.4488 -0.2550 80 37 204 0
0.1632 0.4488 -0.2550 81 38 205 0
0.1683 0.4488 -0.2550 81 38 205 0
0.1734 0.4488 -0.2550 84 37 205 0
0.1785 0.4488 -0.2550 86 39 207 0
0.1836 0.4488 -0.2550 90 38 209 0
0.1887 0.4488 -0.2550 90 38 209 0
0.1938 0.4488 -0.2550 94 38 210 0
0.1989 0.4488 -0.2550 94 38 210 0
0.2040 0.4488 -0.2550 95 36 212 0
0.2091 0.4488 -0.2550 96 37 213 0
0.2142 0.4488 -0.2550 98 38 214 0
0.2193 0.4488 -0.2550 101 38 215 0
0.2244 0.4488 -0.2550 102 37 215 0
0.2295 0.4488 -0.2550 105 38 216 0
0.2346 0.4488 -0.2550 107 38 215 0
0.2397 0.4488 -0.2550 109 39 216 0
0.2448 0.4488 -0.2550 111 37 218 0
0.2499 0.4488 -0.2550 113 38 219 0
0.2550 0.4488 -0.2550 116 38 218 0
0.2601 0.4488 -0.2550 118 39 219 0
0.2652 0.4488 -0.2550 119 38 219 0
0.2703 0.4488 -0.2550 122 39 219 0
0.2754 0.4488 -0.2550 126 38 220 0
0.2805 0.4488 -0.2550 127 39 219 0
0.2856 0.4488 -0.2550 129 40 220 0
0.2907 0.4488 -0.2550 130 39 218 0
0.2958 0.4488 -0.2550 133 40 219 0
0.3009 0.4488 -0.2550 134 41 218 0
0.3060 0.4488 -0.2550 138 41 218 0
0.3111 0.4488 -0.2550 139 42 217 0
0.3162 0.4488 -0.2550 142 42 216 0
0.3213 0.4488 -0.2550 145 42 217 0
0.3264 0.4488 -0.2550 148 41 217 0
0.3315 0.4488 -0.2550 150 40 215 0
0.3366 0.4488 -0.2550 154 40 216 0
0.3417 0.4488 -0.2550 157 38 214 0
0.3468 0.4488 -0.2550 160 37 213 0
0.3519 0.4488 -0.2550 160 38 211 0
0.3570 0.4488 -0.2550 159 37 210 0
0.3621 0.4488 -0.2550 159 37 208 0
0.3672 0.4488 -0.2550 162 36 205 0
0.3723 0.4488 -0.2550 161 35 204 0
0.3774 0.4488 -0.2550 159 33 202 0
0.3825 0.4488 -0.2550 154 31 200 0
0.3876 0.4488 -0.2550 148 30 204 0
0.3927 0.4488 -0.2550 144 31 209 0
0.3978 0.4488 -0.2550 140 36 217 0
0.4029 0.4488 -0.2550 137 42 222 0
0.4080 0.4488 -0.2550 137 50 227 0
0.4131 0.4488 -0.2550 134 54 229 0
0.4182 0.4488 -0.2550 136 57 234 0
0.4233 0.4488 -0.2550 137 60 234 0
0.4284 0.4488 -0.2550 136 63 238 0
0.4335 0.4488 -0.2550 136 67 238 0
0.4386 0.4488 -0.2550 137 71 241 0
0.4437 0.4488 -0.2550 136 73 240 0
0.4488 0.4488 -0.2550 138 75 242 0
0.4539 0.4488 -0.2550 139 76 243 0
0.4590 0.4488 -0.2550 141 78 245 0
0.4641 0.4488 -0.2550 144 79 245 0
0.4692 0.4488 -0.2550 146 79 246 0
0.4743 0.4488 -0.2550 147 79 244 0
0.4794 0.4488 -0.2550 148 80 245 0
0.4845 0.4488 -0.2550 151 80 244 0
0.4896 0.4488 -0.2550 152 82 243 0
0.4947 0.4488 -0.2550 153 83 242 0
0.4998 0.4488 -0.2550 157 82 243 0
0.5049 0.4488 -0.2550 159 85 244 0
0.5100 0.4488 -0.2550 162 84 245 0
0.5151 0.4488 -0.2550 163 86 244 0
0.5202 0.4488 -0.2550 168 87 244 0
0.5253 0.4488 -0.2550 169 88 242 0
0.5304 0.4488 -0.2550 173 88 241 0
0.5355 0.4488 -0.2550 174 90 240 0
0.5385 0.4470 -0.2540 178 89 239 0
0.5414 0.4453 -0.2530 180 90 239 0
0.5443 0.4435 -0.2520 183 91 238 0
0.5472 0.4418 -0.2510 185 91 237 0
0.5500 0.4400 -0.2500 189 91 236 0
0.5528 0.4382 -0.2490 189 92 234 0
0.5533 0.4347 -0.2470 190 93 234 0
0.5560 0.4330 -0.2460 191 93 232 0
0.5586 0.4312 -0.2450 194 91 232 0
0.5589 0.4277 -0.2430 194 92 230 0
0.5614 0.4259 -0.2420 195 92 227 0
0.5616 0.4224 -0.2400 197 91 225 0
0.5617 0.4189 -0.2380 200 89 227 0
0.5641 0.4171 -0.2370 201 89 227 0
0.5640 0.4136 -0.2350 201 87 226 0
0.5663 0.4118 -0.2340 201 87 224 0
0.5636 0.4066 -0.2310 202 86 219 0
0.5609 0.4013 -0.2280 193 89 200 0
0.5605 0.3978 -0.2260 181 103 178 0
0.0000 0.0000 -0.0000 29 0 21 0
0.0000 0.0000 -0.0000 10 0 5 0
0.0051 0.0035 -0.0020 1 1 0 0
-0.0000 0.0000 -0.0000 0 0 0 0
-0.0000 0.0000 -0.0000 0 0 0 0
-0.0000 0.0000 -0.0000 1 0 0 0
-0.0000 0.0000 -0.0000 1 0 0 0
-0.0000 0.0000 -0.0000 4 0 0 0
-0.0000 0.0000 -0.0000 1 0 0 0
-0.0000 0.0000 -0.0000 0 2 0 0
-0.0000 0.0000 -0.0000 0 2 0 0
-0.0000 0.0000 -0.0000 1 1 3 0
-0.0000 0.0000 -0.0000 1 0 0 0
-0.0000 0.0000 -0.0000 0 0 0 0
-0.0000 0.0000 -0.0000 1 1 0 0
-0.0000 0.0000 -0.0000 1 0 0 0
-0.0023 0.0017 -0.0010 0 0 14 0
-0.0000 0.0000 -0.0000 0 0 53 0
-0.5334 0.4106 -0.2360 84 105 194 0
-0.5309 0.4124 -0.2370 87 109 229 0
-0.5284 0.4141 -0.2380 88 110 247 0
-0.5236 0.4141 -0.2380 92 111 249 0
-0.5210 0.4159 -0.2390 92 111 249 0
-0.5184 0.4176 -0.2400 94 112 250 0
-0.5136 0.4176 -0.2400 95 113 251 0
-0.5109 0.4193 -0.2410 96 112 251 0
-0.5061 0.4193 -0.2410 97 113 252 0
-0.5034 0.4211 -0.2420 96 114 250 0
-0.4985 0.4211 -0.2420 97 113 250 0
-0.4937 0.4211 -0.2420 100 113 251 0
-0.4909 0.4228 -0.2430 101 113 251 0
-0.4860 0.4228 -0.2430 103 112 249 0
-0.4811 0.4228 -0.2430 104 112 249 0
-0.4782 0.4246 -0.2440 105 111 249 0
-0.4734 0.4246 -0.2440 107 110 249 0
-0.4685 0.4246 -0.2440 109 110 250 0
-0.4636 0.4246 -0.2440 112 111 251 0
-0.4587 0.4246 -0.2440 114 111 252 0
-0.4557 0.4263 -0.2450 115 110 252 0
-0.4508 0.4263 -0.2450 119 110 253 0
-0.4459 0.4263 -0.2450 122 110 254 0
-0.4410 0.4263 -0.2450 124 109 254 0
-0.4361 0.4263 -0.2450 126 108 254 0
-0.4312 0.4263 -0.2450 130 108 255 0
-0.4263 0.4263 -0.2450 131 107 255 0
-0.4214 0.4263 -0.2450 131 105 254 0
-0.4165 0.4263 -0.2450 132 103 253 0
-0.4116 0.4263 -0.2450 134 101 252 0
-0.4067 0.4263 -0.2450 135 100 252 0
-0.4018 0.4263 -0.2450 136 99 254 0
-0.3969 0.4263 -0.2450 136 97 252 0
-0.3936 0.4280 -0.2460 137 91 249 0
-0.3887 0.4280 -0.2460 137 89 250 0
-0.3838 0.4280 -0.2460 137 87 248 0
-0.3788 0.4280 -0.2460 137 85 248 0
-0.3739 0.4280 -0.2460 135 82 248 0
-0.3690 0.4280 -0.2460 134 78 247 0
-0.3641 0.4280 -0.2460 132 74 244 0
-0.3592 0.4280 -0.2460 129 71 243 0
-0.3542 0.4280 -0.2460 125 67 239 0
-0.3507 0.4298 -0.2470 122 62 235 0
-0.3458 0.4298 -0.2470 121 57 231 0
-0.3409 0.4298 -0.2470 119 51 226 0
-0.3373 0.4315 -0.2480 117 42 220 0
-0.3323 0.4315 -0.2480 115 36 213 0
-0.3287 0.4333 -0.2490 114 31 209 0
-0.3237 0.4333 -0.2490 111 27 203 0
-0.3213 0.4367 -0.2510 111 29 202 0
-0.3175 0.4385 -0.2520 111 29 201 0
-0.3137 0.4402 -0.2530 110 28 201 0
-0.3099 0.4420 -0.2540 111 29 202 0
-0.3048 0.4420 -0.2540 110 30 205 0
-0.3009 0.4437 -0.2550 110 31 208 0
-0.2958 0.4437 -0.2550 110 33 209 0
-0.2907 0.4437 -0.2550 108 33 211 0
-0.2856 0.4437 -0.2550 107 34 211 0
-0.2805 0.4437 -0.2550 108 35 212 0
-0.2754 0.4437 -0.2550 106 36 213 0
-0.2703 0.4437 -0.2550 106 36 213 0
-0.2652 0.4437 -0.2550 106 36 213 0
-0.2601 0.4437 -0.2550 107 37 214 0
-0.2550 0.4437 -0.2550 110 37 215 0
-0.2499 0.4437 -0.2550 112 39 217 0
-0.2448 0.4437 -0.2550 114 36 216 0
-0.2397 0.4437 -0.2550 114 36 216 0
-0.2346 0.4437 -0.2550 116 37 217 0
-0.2295 0.4437 -0.2550 116 38 218 0
-0.2244 0.4437 -0.2550 116 38 218 0
-0.2193 0.4437 -0.2550 117 39 219 0
-0.2142 0.4437 -0.2550 118 41 219 0
-0.2091 0.4437 -0.2550 119 42 220 0
-0.2040 0.4437 -0.2550 122 43 222 0
-0.1989 0.4437 -0.2550 122 43 222 0
-0.1938 0.4437 -0.2550 122 43 222 0
-0.1887 0.4437 -0.2550 122 43 222 0
-0.1836 0.4437 -0.2550 124 43 223 0
-0.1785 0.4437 -0.2550 126 45 225 0
-0.1734 0.4437 -0.2550 129 46 226 0
-0.1683 0.4437 -0.2550 130 47 227 0
-0.1632 0.4437 -0.2550 129 49 226 0
-0.1581 0.4437 -0.2550 130 50 227 0
-0.1530 0.4437 -0.2550 131 51 228 0
-0.1479 0.4437 -0.2550 133 53 230 0
-0.1428 0.4437 -0.2550 133 54 231 0
-0.1377 0.4437 -0.2550 134 55 232 0
-0.1326 0.4437 -0.2550 135 55 232 0
-0.1275 0.4437 -0.2550 136 56 231 0
-0.1224 0.4437 -0.2550 140 58 231 0
-0.1173 0.4437 -0.2550 143 59 233 0
-0.1122 0.4437 -0.2550 147 61 234 0
-0.1071 0.4437 -0.2550 150 62 234 0
-0.1020 0.4437 -0.2550 153 64 234 0
-0.0969 0.4437 -0.2550 155 66 234 0
-0.0918 0.4437 -0.2550 160 68 237 0
-0.0867 0.4437 -0.2550 162 71 237 0
-0.0813 0.4420 -0.2540 164 72 235 0
-0.0762 0.4420 -0.2540 167 75 234 0
-0.0711 0.4420 -0.2540 170 78 237 0
-0.0658 0.4402 -0.2530 172 81 238 0
-0.0605 0.4385 -0.2520 174 83 238 0
-0.0552 0.4367 -0.2510 175 86 238 0
-0.0502 0.4367 -0.2510 177 88 240 0
-0.0450 0.4350 -0.2500 175 89 240 0
-0.0400 0.4350 -0.2500 176 93 243 0
-0.0349 0.4333 -0.2490 174 94 243 0
-0.0298 0.4315 -0.2480 171 95 245 0
-0.0247 0.4298 -0.2470 170 95 247 0
-0.0198 0.4298 -0.2470 167 97 248 0
-0.0148 0.4280 -0.2460 165 96 247 0
-0.0098 0.4263 -0.2450 161 95 247 0
-0.0049 0.4263 -0.2450 157 92 246 0
0.0000 0.4246 -0.2440 154 90 249 0
0.0049 0.4228 -0.2430 148 86 249 0
0.0097 0.4228 -0.2430 142 81 247 0
0.0146 0.4228 -0.2430 136 77 245 0
0.0194 0.4211 -0.2420 133 75 245 0
0.0242 0.4211 -0.2420 129 73 244 0
0.0290 0.4211 -0.2420 123 69 241 0
0.0339 0.4211 -0.2420 119 67 238 0
0.0387 0.4211 -0.2420 112 62 235 0
0.0436 0.4211 -0.2420 108 60 232 0
0.0484 0.4211 -0.2420 103 57 228 0
0.0532 0.4211 -0.2420 96 54 224 0
0.0583 0.4228 -0.2430 92 53 222 0
0.0632 0.4228 -0.2430 87 51 219 0
0.0683 0.4246 -0.2440 83 47 217 0
0.0732 0.4246 -0.2440 79 46 213 0
0.0787 0.4280 -0.2460 76 45 209 0
0.0836 0.4280 -0.2460 75 44 208 0
0.0893 0.4315 -0.2480 74 43 206 0
0.0946 0.4333 -0.2490 73 42 205 0
0.1000 0.4350 -0.2500 74 42 205 0
0.1054 0.4367 -0.2510 73 41 204 0
0.1113 0.4402 -0.2530 72 40 203 0
0.1164 0.4402 -0.2530 74 39 203 0
0.1219 0.4420 -0.2540 74 39 203 0
0.1270 0.4420 -0.2540 75 38 203 0
0.1326 0.4437 -0.2550 75 38 203 0
0.1377 0.4437 -0.2550 76 38 203 0
0.1428 0.4437 -0.2550 76 38 203 0
0.1479 0.4437 -0.2550 79 38 204 0
0.1530 0.4437 -0.2550 80 39 205 0
0.1581 0.4437 -0.2550 81 38 205 0
0.1632 0.4437 -0.2550 81 38 205 0
0.1683 0.4437 -0.2550 81 38 205 0
0.1734 0.4437 -0.2550 84 38 206 0
0.1785 0.4437 -0.2550 86 39 207 0
0.1836 0.4437 -0.2550 88 39 209 0
0.1887 0.4437 -0.2550 90 38 209 0
0.1938 0.4437 -0.2550 92 38 210 0
0.1989 0.4437 -0.2550 95 39 211 0
0.2040 0.4437 -0.2550 96 37 213 0
0.2091 0.4437 -0.2550 97 38 214 0
0.2142 0.4437 -0.2550 99 39 215 0
0.2193 0.4437 -0.2550 100 40 216 0
0.2244 0.4437 -0.2550 102 39 216 0
0.2295 0.4437 -0.2550 104 39 217 0
0.2346 0.4437 -0.2550 107 40 216 0
0.2397 0.4437 -0.2550 110 39 219 0
0.2448 0.4437 -0.2550 113 39 220 0
0.2499 0.4437 -0.2550 114 39 220 0
0.2550 0.4437 -0.2550 118 38 221 0
0.2601 0.4437 -0.2550 119 40 220 0
0.2652 0.4437 -0.2550 122 38 220 0
0.2703 0.4437 -0.2550 123 39 221 0
0.2754 0.4437 -0.2550 127 39 221 0
0.2805 0.4437 -0.2550 128 40 222 0
0.2856 0.4437 -0.2550 130 41 221 0
0.2907 0.4437 -0.2550 131 42 222 0
0.2958 0.4437 -0.2550 135 41 223 0
0.3009 0.4437 -0.2550 136 43 222 0
0.3060 0.4437 -0.2550 139 42 220 0
0.3111 0.4437 -0.2550 140 43 220 0
0.3162 0.4437 -0.2550 143 43 219 0
0.3213 0.4437 -0.2550 146 43 218 0
0.3264 0.4437 -0.2550 150 43 219 0
0.3315 0.4437 -0.2550 152 42 217 0
0.3366 0.4437 -0.2550 155 43 216 0
0.3417 0.4437 -0.2550 156 42 216 0
0.3468 0.4437 -0.2550 158 42 215 0
0.3519 0.4437 -0.2550 157 41 214 0
0.3570 0.4437 -0.2550 157 41 214 0
0.3621 0.4437 -0.2550 157 41 212 0
0.3672 0.4437 -0.2550 158 39 209 0
0.3723 0.4437 -0.2550 160 37 205 0
0.3774 0.4437 -0.2550 162 35 202 0
0.3825 0.4437 -0.2550 160 33 202 0
0.3876 0.4437 -0.2550 157 31 203 0
0.3927 0.4437 -0.2550 151 31 206 0
0.3978 0.4437 -0.2550 148 33 214 0
0.4029 0.4437 -0.2550 145 37 218 0
0.4080 0.4437 -0.2550 143 44 223 0
0.4131 0.4437 -0.2550 142 49 226 0
0.4182 0.4437 -0.2550 142 53 229 0
0.4233 0.4437 -0.2550 142 58 232 0
0.4284 0.4437 -0.2550 141 61 234 0
0.4335 0.4437 -0.2550 141 65 236 0
0.4386 0.4437 -0.2550 140 68 238 0
0.4437 0.4437 -0.2550 139 72 239 0
0.4488 0.4437 -0.2550 139 73 241 0
0.4539 0.4437 -0.2550 141 76 242 0
0.4590 0.4437 -0.2550 143 78 244 0
0.4641 0.4437 -0.2550 144 79 243 0
0.4692 0.4437 -0.2550 146 79 244 0
0.4743 0.4437 -0.2550 148 80 245 0
0.4794 0.4437 -0.2550 151 80 246 0
0.4845 0.4437 -0.2550 152 81 245 0
0.4896 0.4437 -0.2550 153 83 242 0
0.4947 0.4437 -0.2550 155 83 243 0
0.4998 0.4437 -0.2550 158 84 243 0
0.5049 0.4437 -0.2550 160 86 245 0
0.5100 0.4437 -0.2550 163 86 244 0
0.5151 0.4437 -0.2550 164 87 243 0
0.5202 0.4437 -0.2550 168 87 242 0
0.5253 0.4437 -0.2550 170 89 243 0
0.5304 0.4437 -0.2550 173 90 242 0
0.5355 0.4437 -0.2550 175 91 239 0
0.5385 0.4420 -0.2540 177 92 239 0
0.5436 0.4420 -0.2540 180 92 238 0
0.5465 0.4402 -0.2530 183 91 236 0
0.5494 0.4385 -0.2520 185 92 235 0
0.5500 0.4350 -0.2500 187 92 236 0
0.5528 0.4333 -0.2490 188 93 235 0
0.5555 0.4315 -0.2480 189 95 235 0
0.5582 0.4298 -0.2470 189 95 233 0
0.5609 0.4280 -0.2460 194 93 233 0
0.5612 0.4246 -0.2440 195 93 231 0
0.5638 0.4228 -0.2430 195 93 228 0
0.5639 0.4193 -0.2410 197 91 225 0
0.5640 0.4159 -0.2390 200 89 227 0
0.5664 0.4141 -0.2380 200 89 227 0
0.5664 0.4106 -0.2360 200 89 227 0
0.5639 0.4054 -0.2330 199 87 223 0
0.5636 0.4019 -0.2310 203 90 222 0
0.5683 0.4019 -0.2310 196 94 204 0
0.5630 0.3950 -0.2270 184 107 179 0
0.0075 0.0052 -0.0030 29 0 19 0
0.0000 0.0000 -0.0000 12 0 7 0
0.0000 0.0000 -0.0000 0 0 0 0
-0.0000 0.0000 -0.0000 0 0 0 0
-0.0000 0.0000 -0.0000 0 0 0 0
-0.0000 0.0000 -0.0000 1 0 0 0
-0.0000 0.0000 -0.0000 1 0 0 0
-0.0000 0.0000 -0.0000 4 0 0 0
-0.0000 0.0000 -0.0000 1 0 0 0
-0.0000 0.0000 -0.0000 0 2 0 0
-0.0000 0.0000 -0.0000 0 3 0 0
-0.0000 0.0000 -0.0000 0 1 3 0
-0.0000 0.0000 -0.0000 1 0 0 0
-0.0000 0.0000 -0.0000 1 0 0 0
-0.0000 0.0000 -0.0000 0 0 0 0
-0.0000 0.0000 -0.0000 0 1 0 0
-0.0023 0.0017 -0.0010 0 1 14 0
-0.0000 0.0000 -0.0000 0 0 52 0
-0.5356 0.4076 -0.2370 87 108 197 0
-0.5331 0.4094 -0.2380 88 110 230 0
-0.5284 0.4094 -0.2380 89 111 248 0
-0.5236 0.4094 -0.2380 92 111 249 0
-0.5210 0.4111 -0.2390 92 111 249 0
-0.5184 0.4128 -0.2400 95 113 249 0
-0.5136 0.4128 -0.2400 95 113 249 0
-0.5109 0.4145 -0.2410 95 113 249 0
-0.5061 0.4145 -0.2410 97 115 251 0
-0.5034 0.4162 -0.2420 97 113 250 0
-0.4985 0.4162 -0.2420 97 113 250 0
-0.4937 0.4162 -0.2420 99 113 248 0
-0.4909 0.4180 -0.2430 101 113 249 0
-0.4860 0.4180 -0.2430 103 112 249 0
-0.4811 0.4180 -0.2430 104 112 249 0
-0.4782 0.4197 -0.2440 105 111 249 0
-0.4734 0.4197 -0.2440 106 109 248 0
-0.4704 0.4214 -0.2450 109 110 250 0
-0.4655 0.4214 -0.2450 111 110 250 0
-0.4606 0.4214 -0.2450 113 110 251 0
-0.4557 0.4214 -0.2450 115 110 252 0
-0.4508 0.4214 -0.2450 119 110 253 0
-0.4459 0.4214 -0.2450 121 109 253 0
-0.4410 0.4214 -0.2450 123 108 251 0
-0.4361 0.4214 -0.2450 125 107 251 0
-0.4312 0.4214 -0.2450 127 107 254 0
-0.4263 0.4214 -0.2450 129 107 254 0
-0.4214 0.4214 -0.2450 130 104 253 0
-0.4182 0.4231 -0.2460 131 102 252 0
-0.4133 0.4231 -0.2460 132 101 254 0
-0.4084 0.4231 -0.2460 134 101 254 0
-0.4034 0.4231 -0.2460 134 99 253 0
-0.3985 0.4231 -0.2460 133 96 251 0
-0.3952 0.4248 -0.2470 135 91 250 0
-0.3903 0.4248 -0.2470 135 89 250 0
-0.3853 0.4248 -0.2470 134 86 248 0
-0.3804 0.4248 -0.2470 134 83 248 0
-0.3754 0.4248 -0.2470 132 79 245 0
-0.3720 0.4266 -0.2480 128 75 243 0
-0.3670 0.4266 -0.2480 126 70 241 0
-0.3621 0.4266 -0.2480 123 67 239 0
-0.3571 0.4266 -0.2480 119 63 235 0
-0.3522 0.4266 -0.2480 114 56 229 0
-0.3486 0.4283 -0.2490 111 48 223 0
-0.3436 0.4283 -0.2490 109 42 217 0
-0.3400 0.4300 -0.2500 104 34 210 0
-0.3363 0.4317 -0.2510 104 29 207 0
-0.3326 0.4334 -0.2520 106 27 206 0
-0.3276 0.4334 -0.2520 106 26 203 0
-0.3251 0.4369 -0.2540 110 30 207 0
-0.3200 0.4369 -0.2540 111 31 208 0
-0.3162 0.4386 -0.2550 112 33 210 0
-0.3111 0.4386 -0.2550 113 34 211 0
-0.3060 0.4386 -0.2550 112 35 211 0
-0.3009 0.4386 -0.2550 112 35 213 0
-0.2958 0.4386 -0.2550 111 36 214 0
-0.2907 0.4386 -0.2550 111 36 215 0
-0.2856 0.4386 -0.2550 110 37 215 0
-0.2805 0.4386 -0.2550 111 38 216 0
-0.2754 0.4386 -0.2550 111 37 218 0
-0.2703 0.4386 -0.2550 111 37 218 0
-0.2652 0.4386 -0.2550 109 38 218 0
-0.2601 0.4386 -0.2550 110 39 219 0
-0.2550 0.4386 -0.2550 111 40 220 0
-0.2499 0.4386 -0.2550 114 40 221 0
-0.2448 0.4386 -0.2550 114 39 218 0
-0.2397 0.4386 -0.2550 115 40 219 0
-0.2346 0.4386 -0.2550 118 40 220 0
-0.2295 0.4386 -0.2550 117 42 221 0
-0.2244 0.4386 -0.2550 117 42 221 0
-0.2193 0.4386 -0.2550 118 43 222 0
-0.2142 0.4386 -0.2550 121 43 223 0
-0.2091 0.4386 -0.2550 121 43 223 0
-0.2040 0.4386 -0.2550 123 46 224 0
-0.1989 0.4386 -0.2550 123 46 224 0
-0.1938 0.4386 -0.2550 124 45 224 0
-0.1887 0.4386 -0.2550 125 46 225 0
-0.1836 0.4386 -0.2550 127 46 226 0
-0.1785 0.4386 -0.2550 128 47 227 0
-0.1734 0.4386 -0.2550 130 49 229 0
-0.1683 0.4386 -0.2550 131 50 230 0
-0.1632 0.4386 -0.2550 131 51 228 0
-0.1581 0.4386 -0.2550 131 51 228 0
-0.1530 0.4386 -0.2550 133 53 230 0
-0.1479 0.4386 -0.2550 134 54 231 0
-0.1428 0.4386 -0.2550 135 55 232 0
-0.1377 0.4386 -0.2550 136 56 233 0
-0.1326 0.4386 -0.2550 138 55 231 0
-0.1275 0.4386 -0.2550 140 57 233 0
-0.1224 0.4386 -0.2550 142 58 232 0
-0.1173 0.4386 -0.2550 144 60 234 0
-0.1122 0.4386 -0.2550 148 62 235 0
-0.1071 0.4386 -0.2550 151 63 235 0
-0.1020 0.4386 -0.2550 154 65 235 0
-0.0969 0.4386 -0.2550 158 66 235 0
-0.0918 0.4386 -0.2550 161 68 237 0
-0.0867 0.4386 -0.2550 163 70 236 0
-0.0816 0.4386 -0.2550 167 72 234 0
-0.0765 0.4386 -0.2550 169 75 234 0
-0.0714 0.4386 -0.2550 172 78 237 0
-0.0660 0.4369 -0.2540 174 80 238 0
-0.0607 0.4352 -0.2530 176 82 238 0
-0.0554 0.4334 -0.2520 176 85 238 0
-0.0502 0.4317 -0.2510 178 87 240 0
-0.0452 0.4317 -0.2510 177 88 238 0
-0.0402 0.4317 -0.2510 176 90 239 0
-0.0350 0.4300 -0.2500 174 91 241 0
-0.0299 0.4283 -0.2490 171 92 243 0
-0.0248 0.4266 -0.2480 168 92 244 0
-0.0198 0.4248 -0.2470 166 93 245 0
-0.0148 0.4248 -0.2470 161 92 245 0
-0.0098 0.4231 -0.2460 157 90 245 0
-0.0049 0.4214 -0.2450 153 88 244 0
0.0000 0.4214 -0.2450 150 85 247 0
0.0049 0.4197 -0.2440 144 82 245 0
0.0098 0.4197 -0.2440 138 77 243 0
0.0146 0.4197 -0.2440 133 74 242 0
0.0194 0.4180 -0.2430 129 73 242 0
0.0243 0.4180 -0.2430 124 71 241 0
0.0292 0.4180 -0.2430 117 68 238 0
0.0340 0.4180 -0.2430 112 64 236 0
0.0389 0.4180 -0.2430 109 63 234 0
0.0437 0.4180 -0.2430 104 60 231 0
0.0486 0.4180 -0.2430 99 57 227 0
0.0537 0.4197 -0.2440 92 55 223 0
0.0586 0.4197 -0.2440 89 53 221 0
0.0637 0.4214 -0.2450 83 52 218 0
0.0689 0.4231 -0.2460 80 49 215 0
0.0738 0.4231 -0.2460 75 46 212 0
0.0790 0.4248 -0.2470 73 47 209 0
0.0843 0.4266 -0.2480 72 46 207 0
0.0900 0.4300 -0.2500 71 45 206 0
0.0954 0.4317 -0.2510 70 44 205 0
0.1008 0.4334 -0.2520 70 42 204 0
0.1067 0.4369 -0.2540 70 42 204 0
0.1122 0.4386 -0.2550 71 40 203 0
0.1173 0.4386 -0.2550 71 40 203 0
0.1224 0.4386 -0.2550 72 40 203 0
0.1275 0.4386 -0.2550 74 39 203 0
0.1326 0.4386 -0.2550 74 39 203 0
0.1377 0.4386 -0.2550 76 39 204 0
0.1428 0.4386 -0.2550 77 39 204 0
0.1479 0.4386 -0.2550 77 39 204 0
0.1530 0.4386 -0.2550 78 39 206 0
0.1581 0.4386 -0.2550 80 39 206 0
0.1632 0.4386 -0.2550 81 38 206 0
0.1683 0.4386 -0.2550 82 39 207 0
0.1734 0.4386 -0.2550 85 39 208 0
0.1785 0.4386 -0.2550 87 39 209 0
0.1836 0.4386 -0.2550 88 39 209 0
0.1887 0.4386 -0.2550 90 38 209 0
0.1938 0.4386 -0.2550 93 39 213 0
0.1989 0.4386 -0.2550 94 40 214 0
0.2040 0.4386 -0.2550 96 39 214 0
0.2091 0.4386 -0.2550 97 40 215 0
0.2142 0.4386 -0.2550 99 40 216 0
0.2193 0.4386 -0.2550 101 41 217 0
0.2244 0.4386 -0.2550 103 40 217 0
0.2295 0.4386 -0.2550 105 40 218 0
0.2346 0.4386 -0.2550 108 41 219 0
0.2397 0.4386 -0.2550 110 41 220 0
0.2448 0.4386 -0.2550 114 40 221 0
0.2499 0.4386 -0.2550 116 41 222 0
0.2550 0.4386 -0.2550 120 40 223 0
0.2601 0.4386 -0.2550 120 41 221 0
0.2652 0.4386 -0.2550 124 40 222 0
0.2703 0.4386 -0.2550 124 41 221 0
0.2754 0.4386 -0.2550 128 40 222 0
0.2805 0.4386 -0.2550 129 41 223 0
0.2856 0.4386 -0.2550 131 41 224 0
0.2907 0.4386 -0.2550 132 42 225 0
0.2958 0.4386 -0.2550 136 42 226 0
0.3009 0.4386 -0.2550 137 43 225 0
0.3060 0.4386 -0.2550 141 43 226 0
0.3111 0.4386 -0.2550 142 44 225 0
0.3162 0.4386 -0.2550 145 44 224 0
0.3213 0.4386 -0.2550 147 44 221 0
0.3264 0.4386 -0.2550 149 45 220 0
0.3315 0.4386 -0.2550 153 45 219 0
0.3366 0.4386 -0.2550 154 44 217 0
0.3417 0.4386 -0.2550 154 44 217 0
0.3468 0.4386 -0.2550 156 44 217 0
0.3519 0.4386 -0.2550 156 44 217 0
0.3570 0.4386 -0.2550 155 43 215 0
0.3621 0.4386 -0.2550 156 42 215 0
0.3672 0.4386 -0.2550 159 41 213 0
0.3723 0.4386 -0.2550 160 41 211 0
0.3774 0.4386 -0.2550 162 39 208 0
0.3825 0.4386 -0.2550 161 38 207 0
0.3876 0.4386 -0.2550 159 35 207 0
0.3927 0.4386 -0.2550 154 34 207 0
0.3978 0.4386 -0.2550 153 34 210 0
0.4029 0.4386 -0.2550 151 37 213 0
0.4080 0.4386 -0.2550 147 40 216 0
0.4131 0.4386 -0.2550 147 44 221 0
0.4182 0.4386 -0.2550 148 50 225 0
0.4233 0.4386 -0.2550 147 55 228 0
0.4284 0.4386 -0.2550 146 58 232 0
0.4335 0.4386 -0.2550 144 62 234 0
0.4386 0.4386 -0.2550 144 66 237 0
0.4437 0.4386 -0.2550 143 70 237 0
0.4488 0.4386 -0.2550 142 73 241 0
0.4539 0.4386 -0.2550 142 75 240 0
0.4590 0.4386 -0.2550 145 78 243 0
0.4641 0.4386 -0.2550 146 80 242 0
0.4692 0.4386 -0.2550 147 81 243 0
0.4743 0.4386 -0.2550 149 81 244 0
0.4794 0.4386 -0.2550 152 81 245 0
0.4845 0.4386 -0.2550 153 83 244 0
0.4896 0.4386 -0.2550 155 83 243 0
0.4947 0.4386 -0.2550 156 85 243 0
0.4998 0.4386 -0.2550 160 86 245 0
0.5049 0.4386 -0.2550 161 87 246 0
0.5100 0.4386 -0.2550 164 87 245 0
0.5151 0.4386 -0.2550 165 88 244 0
0.5202 0.4386 -0.2550 169 88 243 0
0.5253 0.4386 -0.2550 171 91 242 0
0.5304 0.4386 -0.2550 174 91 241 0
0.5355 0.4386 -0.2550 176 92 240 0
0.5406 0.4386 -0.2550 178 93 240 0
0.5457 0.4386 -0.2550 181 93 239 0
0.5486 0.4369 -0.2540 184 92 237 0
0.5515 0.4352 -0.2530 186 93 236 0
0.5522 0.4317 -0.2510 188 93 237 0
0.5550 0.4300 -0.2500 187 94 234 0
0.5578 0.4283 -0.2490 185 97 233 0
0.5605 0.4266 -0.2480 187 97 231 0
0.5609 0.4231 -0.2460 191 95 231 0
0.5635 0.4214 -0.2450 194 93 231 0
0.5661 0.4197 -0.2440 194 94 228 0
0.5663 0.4162 -0.2420 196 93 228 0
0.5664 0.4128 -0.2400 199 91 228 0
0.5688 0.4111 -0.2390 198 90 227 0
0.5664 0.4059 -0.2360 196 90 226 0
0.5760 0.4094 -0.2380 199 91 226 0
0.5710 0.4025 -0.2340 199 86 217 0
0.5658 0.3956 -0.2300 196 95 201 0
0.5605 0.3887 -0.2260 185 108 176 0
0.0050 0.0034 -0.0020 30 0 17 0
0.0000 0.0000 -0.0000 8 0 5 0
0.0051 0.0034 -0.0020 1 3 2 0
-0.0000 0.0000 -0.0000 0 0 0 0
-0.0000 0.0000 -0.0000 0 0 0 0
-0.0000 0.0000 -0.0000 1 0 0 0
-0.0000 0.0000 -0.0000 1 0 0 0
-0.0000 0.0000 -0.0000 3 0 0 0
-0.0000 0.0000 -0.0000 1 0 0 0
-0.0000 0.0000 -0.0000 0 2 0 0
-0.0000 0.0000 -0.0000 0 3 0 0
-0.0000 0.0000 -0.0000 0 0 2 0
-0.0000 0.0000 -0.0000 1 0 0 0
-0.0000 0.0000 -0.0000 1 0 0 0
-0.0000 0.0000 -0.0000 0 0 0 0
-0.0000 0.0000 -0.0000 0 2 0 0
-0.0023 0.0017 -0.0010 0 2 14 0
-0.0000 0.0000 -0.0000 0 1 52 0
-0.5356 0.4029 -0.2370 90 110 196 0
-0.5331 0.4046 -0.2380 89 111 230 0
-0.5284 0.4046 -0.2380 90 112 249 0
-0.5258 0.4063 -0.2390 91 113 250 0
-0.5210 0.4063 -0.2390 93 113 248 0
-0.5184 0.4080 -0.2400 94 114 249 0
-0.5136 0.4080 -0.2400 96 114 250 0
-0.5109 0.4097 -0.2410 95 113 249 0
-0.5061 0.4097 -0.2410 97 115 251 0
-0.5034 0.4114 -0.2420 98 114 251 0
-0.4985 0.4114 -0.2420 98 114 251 0
-0.4937 0.4114 -0.2420 100 114 249 0
-0.4909 0.4131 -0.2430 100 114 249 0
-0.4860 0.4131 -0.2430 101 113 249 0
-0.4831 0.4148 -0.2440 103 112 249 0
-0.4782 0.4148 -0.2440 104 112 249 0
-0.4734 0.4148 -0.2440 105 111 249 0
-0.4704 0.4165 -0.2450 108 111 250 0
-0.4655 0.4165 -0.2450 109 110 250 0
-0.4606 0.4165 -0.2450 112 111 251 0
-0.4557 0.4165 -0.2450 114 111 252 0
-0.4508 0.4165 -0.2450 118 111 253 0
-0.4459 0.4165 -0.2450 119 110 253 0
-0.4428 0.4182 -0.2460 122 109 251 0
-0.4379 0.4182 -0.2460 123 108 251 0
-0.4312 0.4165 -0.2450 126 108 254 0
-0.4280 0.4182 -0.2460 126 106 253 0
-0.4231 0.4182 -0.2460 128 104 252 0
-0.4182 0.4182 -0.2460 128 102 251 0
-0.4133 0.4182 -0.2460 130 101 253 0
-0.4084 0.4182 -0.2460 131 100 253 0
-0.4051 0.4199 -0.2470 131 98 251 0
-0.4001 0.4199 -0.2470 131 96 252 0
-0.3952 0.4199 -0.2470 133 93 252 0
-0.3903 0.4199 -0.2470 134 89 250 0
-0.3869 0.4216 -0.2480 132 85 249 0
-0.3819 0.4216 -0.2480 130 81 248 0
-0.3785 0.4233 -0.2490 128 77 244 0
-0.3735 0.4233 -0.2490 124 71 241 0
-0.3685 0.4233 -0.2490 119 65 237 0
-0.3635 0.4233 -0.2490 117 61 233 0
