ply
        format ascii 1.0
        element vertex 65536
        property float x
        property float y
        property float z
        property uchar red
        property uchar green
        property uchar blue
        property uchar alpha
        end_header
-0.2802 -0.1627 -0.2260 177 128 246 0
-0.2745 -0.1620 -0.2250 176 127 245 0
-0.2688 -0.1613 -0.2240 176 127 245 0
-0.2631 -0.1606 -0.2230 176 127 245 0
-0.2575 -0.1598 -0.2220 177 126 245 0
-0.2519 -0.1591 -0.2210 176 125 244 0
-0.2453 -0.1577 -0.2190 178 124 244 0
-0.2398 -0.1570 -0.2180 178 124 244 0
-0.2344 -0.1562 -0.2170 179 124 244 0
-0.2290 -0.1555 -0.2160 179 124 244 0
-0.2236 -0.1548 -0.2150 179 123 246 0
-0.2183 -0.1541 -0.2140 178 122 245 0
-0.2130 -0.1534 -0.2130 178 122 245 0
-0.2078 -0.1526 -0.2120 179 121 244 0
-0.2026 -0.1519 -0.2110 181 121 243 0
-0.1974 -0.1512 -0.2100 181 121 243 0
-0.1923 -0.1505 -0.2090 182 120 243 0
-0.1872 -0.1498 -0.2080 184 120 243 0
-0.1822 -0.1490 -0.2070 184 118 242 0
-0.1772 -0.1483 -0.2060 184 118 242 0
-0.1722 -0.1476 -0.2050 185 116 241 0
-0.1673 -0.1469 -0.2040 185 116 241 0
-0.1616 -0.1454 -0.2020 184 115 242 0
-0.1568 -0.1447 -0.2010 181 115 241 0
-0.1520 -0.1440 -0.2000 180 115 243 0
-0.1465 -0.1426 -0.1980 178 115 245 0
-0.1426 -0.1426 -0.1980 176 115 245 0
-0.1379 -0.1418 -0.1970 174 115 244 0
-0.1333 -0.1411 -0.1960 171 114 245 0
-0.1287 -0.1404 -0.1950 171 115 248 0
-0.1242 -0.1397 -0.1940 167 117 252 0
-0.1197 -0.1390 -0.1930 163 117 252 0
-0.1158 -0.1390 -0.1930 160 116 251 0
-0.1114 -0.1382 -0.1920 157 117 252 0
-0.1075 -0.1382 -0.1920 151 117 253 0
-0.1031 -0.1375 -0.1910 149 119 253 0
-0.0993 -0.1375 -0.1910 145 119 254 0
-0.0950 -0.1368 -0.1900 142 120 254 0
-0.0907 -0.1361 -0.1890 140 120 254 0
-0.0869 -0.1361 -0.1890 138 120 254 0
-0.0832 -0.1361 -0.1890 137 119 255 0
-0.0790 -0.1354 -0.1880 138 117 254 0
-0.0748 -0.1346 -0.1870 138 117 254 0
-0.0711 -0.1346 -0.1870 139 117 254 0
-0.0673 -0.1346 -0.1870 138 116 253 0
-0.0632 -0.1339 -0.1860 139 115 253 0
-0.0595 -0.1339 -0.1860 140 113 252 0
-0.0555 -0.1332 -0.1850 139 112 251 0
-0.0518 -0.1332 -0.1850 140 111 253 0
-0.0481 -0.1332 -0.1850 140 111 253 0
-0.0442 -0.1325 -0.1840 141 109 252 0
-0.0405 -0.1325 -0.1840 142 109 252 0
-0.0366 -0.1318 -0.1830 141 108 251 0
-0.0329 -0.1318 -0.1830 141 106 250 0
-0.0293 -0.1318 -0.1830 141 106 252 0
-0.0255 -0.1310 -0.1820 141 106 252 0
-0.0218 -0.1310 -0.1820 142 104 252 0
-0.0182 -0.1310 -0.1820 139 103 251 0
-0.0146 -0.1310 -0.1820 138 102 252 0
-0.0109 -0.1303 -0.1810 138 102 252 0
-0.0072 -0.1303 -0.1810 136 100 250 0
-0.0036 -0.1303 -0.1810 135 99 251 0
0.0000 -0.1296 -0.1800 135 98 253 0
0.0036 -0.1296 -0.1800 134 97 252 0
0.0072 -0.1296 -0.1800 132 97 251 0
0.0108 -0.1296 -0.1800 131 98 251 0
0.0144 -0.1296 -0.1800 128 97 252 0
0.0180 -0.1296 -0.1800 126 97 251 0
0.0216 -0.1296 -0.1800 125 95 251 0
0.0252 -0.1296 -0.1800 122 95 250 0
0.0288 -0.1296 -0.1800 121 96 250 0
0.0324 -0.1296 -0.1800 119 96 249 0
0.0360 -0.1296 -0.1800 116 95 250 0
0.0396 -0.1296 -0.1800 113 96 250 0
0.0432 -0.1296 -0.1800 112 97 250 0
0.0471 -0.1303 -0.1810 109 99 250 0
0.0507 -0.1303 -0.1810 108 99 250 0
0.0543 -0.1303 -0.1810 106 100 250 0
0.0579 -0.1303 -0.1810 104 101 250 0
0.0619 -0.1310 -0.1820 102 102 250 0
0.0655 -0.1310 -0.1820 102 102 250 0
0.0695 -0.1318 -0.1830 101 103 250 0
0.0732 -0.1318 -0.1830 100 105 251 0
0.0769 -0.1318 -0.1830 99 105 251 0
0.0805 -0.1318 -0.1830 99 107 250 0
0.0846 -0.1325 -0.1840 99 107 250 0
0.0883 -0.1325 -0.1840 100 109 250 0
0.0925 -0.1332 -0.1850 101 110 251 0
0.0962 -0.1332 -0.1850 102 111 252 0
0.1004 -0.1339 -0.1860 104 113 252 0
0.1042 -0.1339 -0.1860 106 113 253 0
0.1085 -0.1346 -0.1870 107 115 252 0
0.1122 -0.1346 -0.1870 109 115 253 0
0.1159 -0.1346 -0.1870 110 116 254 0
0.1203 -0.1354 -0.1880 114 118 254 0
0.1241 -0.1354 -0.1880 116 118 255 0
0.1278 -0.1354 -0.1880 117 119 255 0
0.1316 -0.1354 -0.1880 118 120 255 0
0.1361 -0.1361 -0.1890 119 121 255 0
0.1399 -0.1361 -0.1890 119 121 255 0
0.1436 -0.1361 -0.1890 120 123 255 0
0.1474 -0.1361 -0.1890 120 123 254 0
0.1512 -0.1361 -0.1890 121 124 255 0
0.1558 -0.1368 -0.1900 120 125 255 0
0.1596 -0.1368 -0.1900 120 125 253 0
0.1634 -0.1368 -0.1900 118 126 253 0
0.1672 -0.1368 -0.1900 117 126 253 0
0.1719 -0.1375 -0.1910 118 127 254 0
0.1757 -0.1375 -0.1910 118 127 254 0
0.1795 -0.1375 -0.1910 114 128 253 0
0.1834 -0.1375 -0.1910 109 128 255 0
0.1882 -0.1382 -0.1920 100 128 253 0
0.1930 -0.1390 -0.1930 92 126 249 0
0.1979 -0.1397 -0.1940 82 124 244 0
0.2028 -0.1404 -0.1950 73 122 241 0
0.2088 -0.1418 -0.1970 68 120 238 0
0.2149 -0.1433 -0.1990 64 119 236 0
0.2200 -0.1440 -0.2000 62 117 234 0
0.2251 -0.1447 -0.2010 61 116 235 0
0.2303 -0.1454 -0.2020 61 116 235 0
0.2366 -0.1469 -0.2040 61 115 237 0
0.2419 -0.1476 -0.2050 61 115 237 0
0.2484 -0.1490 -0.2070 61 115 237 0
0.2538 -0.1498 -0.2080 63 115 237 0
0.2604 -0.1512 -0.2100 63 113 236 0
0.2659 -0.1519 -0.2110 64 112 236 0
0.2714 -0.1526 -0.2120 65 113 239 0
0.2769 -0.1534 -0.2130 65 113 239 0
0.2838 -0.1548 -0.2150 68 113 240 0
0.2908 -0.1562 -0.2170 69 114 241 0
0.2965 -0.1570 -0.2180 69 114 241 0
0.3022 -0.1577 -0.2190 70 115 242 0
0.3080 -0.1584 -0.2200 71 114 242 0
0.3138 -0.1591 -0.2210 72 115 243 0
0.3211 -0.1606 -0.2230 72 116 241 0
0.3270 -0.1613 -0.2240 73 117 242 0
0.3330 -0.1620 -0.2250 73 117 242 0
0.3390 -0.1627 -0.2260 74 118 243 0
0.3450 -0.1634 -0.2270 74 118 241 0
0.3511 -0.1642 -0.2280 75 119 242 0
0.3572 -0.1649 -0.2290 75 119 242 0
0.3634 -0.1656 -0.2300 76 120 243 0
0.3696 -0.1663 -0.2310 75 121 243 0
0.3758 -0.1670 -0.2320 75 121 243 0
0.3821 -0.1678 -0.2330 76 122 244 0
0.3884 -0.1685 -0.2340 76 122 244 0
0.3948 -0.1692 -0.2350 76 122 244 0
0.4012 -0.1699 -0.2360 77 123 245 0
0.4076 -0.1706 -0.2370 78 124 246 0
0.4141 -0.1714 -0.2380 79 125 247 0
0.4206 -0.1721 -0.2390 80 124 245 0
0.4254 -0.1721 -0.2390 80 124 245 0
0.4320 -0.1728 -0.2400 81 125 246 0
0.4386 -0.1735 -0.2410 81 125 246 0
0.4453 -0.1742 -0.2420 83 125 246 0
0.4520 -0.1750 -0.2430 84 126 247 0
0.4587 -0.1757 -0.2440 86 126 248 0
0.4655 -0.1764 -0.2450 86 126 248 0
0.4723 -0.1771 -0.2460 88 127 248 0
0.4772 -0.1771 -0.2460 91 127 249 0
0.4841 -0.1778 -0.2470 92 126 249 0
0.4910 -0.1786 -0.2480 93 127 250 0
0.4980 -0.1793 -0.2490 95 127 250 0
0.5050 -0.1800 -0.2500 96 128 251 0
0.5120 -0.1807 -0.2510 96 128 251 0
0.5171 -0.1807 -0.2510 96 128 251 0
0.5242 -0.1814 -0.2520 97 127 251 0
0.5313 -0.1822 -0.2530 98 128 252 0
0.5364 -0.1822 -0.2530 99 127 252 0
0.5436 -0.1829 -0.2540 102 127 253 0
0.5508 -0.1836 -0.2550 103 127 253 0
0.5559 -0.1836 -0.2550 106 127 254 0
0.5610 -0.1836 -0.2550 108 127 255 0
0.5661 -0.1836 -0.2550 110 128 255 0
0.5712 -0.1836 -0.2550 114 127 255 0
0.5763 -0.1836 -0.2550 122 131 226 0
0.0000 -0.0000 -0.0000 0 0 28 0
0.0023 -0.0007 -0.0010 0 0 0 0
0.0000 -0.0000 -0.0000 1 0 2 0
0.0000 -0.0000 -0.0000 1 1 3 0
0.0000 -0.0000 -0.0000 0 0 0 0
0.0000 -0.0000 -0.0000 0 1 0 0
0.0000 -0.0000 -0.0000 0 0 2 0
0.0000 -0.0000 -0.0000 0 0 2 0
0.0000 -0.0000 -0.0000 0 1 0 0
0.0000 -0.0000 -0.0000 0 0 0 0
0.0000 -0.0000 -0.0000 1 0 0 0
0.0000 -0.0000 -0.0000 1 0 0 0
0.0000 -0.0000 -0.0000 0 0 2 0
0.0000 -0.0000 -0.0000 0 0 4 0
-0.0000 -0.0000 -0.0000 0 0 0 0
-0.0000 -0.0000 -0.0000 0 0 0 0
-0.0000 -0.0000 -0.0000 0 1 0 0
-0.0000 -0.0000 -0.0000 0 1 0 0
-0.0000 -0.0000 -0.0000 1 0 2 0
-0.0000 -0.0000 -0.0000 0 0 2 0
-0.0000 -0.0000 -0.0000 0 0 0 0
-0.0000 -0.0000 -0.0000 0 1 0 0
-0.0000 -0.0000 -0.0000 0 0 0 0
-0.0000 -0.0000 -0.0000 0 0 29 0
-0.6018 -0.1887 -0.2550 109 133 223 0
-0.5944 -0.1880 -0.2540 106 135 253 0
-0.5916 -0.1887 -0.2550 114 136 255 0
-0.5865 -0.1887 -0.2550 120 137 255 0
-0.5814 -0.1887 -0.2550 125 135 255 0
-0.5763 -0.1887 -0.2550 129 135 255 0
-0.5712 -0.1887 -0.2550 131 136 254 0
-0.5661 -0.1887 -0.2550 134 136 255 0
-0.5610 -0.1887 -0.2550 135 136 254 0
-0.5559 -0.1887 -0.2550 138 134 254 0
-0.5508 -0.1887 -0.2550 140 135 255 0
-0.5457 -0.1887 -0.2550 143 133 255 0
-0.5406 -0.1887 -0.2550 145 134 254 0
-0.5355 -0.1887 -0.2550 146 135 255 0
-0.5304 -0.1887 -0.2550 148 135 253 0
-0.5253 -0.1887 -0.2550 149 136 254 0
-0.5202 -0.1887 -0.2550 151 136 253 0
-0.5151 -0.1887 -0.2550 151 136 253 0
-0.5080 -0.1880 -0.2540 152 134 252 0
-0.5029 -0.1880 -0.2540 153 135 253 0
-0.4959 -0.1872 -0.2530 154 135 253 0
-0.4889 -0.1865 -0.2520 154 135 253 0
-0.4838 -0.1865 -0.2520 155 134 251 0
-0.4769 -0.1857 -0.2510 155 134 251 0
-0.4700 -0.1850 -0.2500 158 135 252 0
-0.4650 -0.1850 -0.2500 157 134 251 0
-0.4582 -0.1843 -0.2490 157 134 251 0
-0.4514 -0.1835 -0.2480 157 134 251 0
-0.4446 -0.1828 -0.2470 158 133 251 0
-0.4397 -0.1828 -0.2470 159 134 252 0
-0.4330 -0.1820 -0.2460 158 133 251 0
-0.4263 -0.1813 -0.2450 158 133 251 0
-0.4214 -0.1813 -0.2450 160 132 251 0
-0.4148 -0.1806 -0.2440 160 132 251 0
-0.4099 -0.1806 -0.2440 160 132 251 0
-0.4034 -0.1798 -0.2430 160 132 251 0
-0.3969 -0.1791 -0.2420 160 131 250 0
-0.3904 -0.1783 -0.2410 159 130 249 0
-0.3856 -0.1783 -0.2410 160 131 249 0
-0.3792 -0.1776 -0.2400 161 132 250 0
-0.3728 -0.1769 -0.2390 162 131 250 0
-0.3665 -0.1761 -0.2380 162 131 250 0
-0.3618 -0.1761 -0.2380 166 131 251 0
-0.3555 -0.1754 -0.2370 166 131 251 0
-0.3493 -0.1746 -0.2360 168 130 249 0
-0.3431 -0.1739 -0.2350 168 130 249 0
-0.3384 -0.1739 -0.2350 167 129 248 0
-0.3323 -0.1732 -0.2340 168 130 249 0
-0.3262 -0.1724 -0.2330 169 130 247 0
-0.3202 -0.1717 -0.2320 170 131 248 0
-0.3142 -0.1709 -0.2310 172 129 247 0
-0.3082 -0.1702 -0.2300 172 129 247 0
-0.3023 -0.1695 -0.2290 174 129 246 0
-0.2964 -0.1687 -0.2280 174 129 246 0
-0.2918 -0.1687 -0.2280 176 128 246 0
-0.2860 -0.1680 -0.2270 176 128 246 0
-0.2802 -0.1672 -0.2260 176 127 245 0
-0.2745 -0.1665 -0.2250 176 127 245 0
-0.2688 -0.1658 -0.2240 176 127 245 0
-0.2631 -0.1650 -0.2230 176 127 245 0
-0.2575 -0.1643 -0.2220 177 126 245 0
-0.2519 -0.1635 -0.2210 177 126 245 0
-0.2453 -0.1621 -0.2190 178 124 244 0
-0.2398 -0.1613 -0.2180 178 124 244 0
-0.2344 -0.1606 -0.2170 180 125 245 0
-0.2290 -0.1598 -0.2160 180 125 245 0
-0.2236 -0.1591 -0.2150 179 123 246 0
-0.2183 -0.1584 -0.2140 179 123 246 0
-0.2130 -0.1576 -0.2130 178 122 245 0
-0.2078 -0.1569 -0.2120 178 122 245 0
-0.2035 -0.1569 -0.2120 180 122 243 0
-0.1983 -0.1561 -0.2110 181 121 243 0
-0.1932 -0.1554 -0.2100 181 119 242 0
-0.1872 -0.1539 -0.2080 181 119 242 0
-0.1822 -0.1532 -0.2070 183 119 242 0
-0.1772 -0.1524 -0.2060 183 117 241 0
-0.1722 -0.1517 -0.2050 185 116 241 0
-0.1673 -0.1510 -0.2040 183 117 241 0
-0.1616 -0.1495 -0.2020 183 117 243 0
-0.1568 -0.1487 -0.2010 181 116 242 0
-0.1520 -0.1480 -0.2000 178 116 243 0
-0.1473 -0.1473 -0.1990 177 116 243 0
-0.1426 -0.1465 -0.1980 176 115 245 0
-0.1379 -0.1458 -0.1970 174 115 244 0
-0.1333 -0.1450 -0.1960 172 115 246 0
-0.1287 -0.1443 -0.1950 171 115 248 0
-0.1242 -0.1436 -0.1940 167 117 252 0
-0.1203 -0.1436 -0.1940 163 117 252 0
-0.1158 -0.1428 -0.1930 161 117 252 0
-0.1114 -0.1421 -0.1920 158 118 251 0
-0.1075 -0.1421 -0.1920 154 118 252 0
-0.1037 -0.1421 -0.1920 149 119 253 0
-0.0993 -0.1413 -0.1910 145 119 254 0
-0.0950 -0.1406 -0.1900 142 120 254 0
-0.0912 -0.1406 -0.1900 141 121 255 0
-0.0869 -0.1399 -0.1890 138 120 254 0
-0.0832 -0.1399 -0.1890 137 119 255 0
-0.0790 -0.1391 -0.1880 136 118 254 0
-0.0752 -0.1391 -0.1880 136 118 254 0
-0.0711 -0.1384 -0.1870 138 117 254 0
-0.0673 -0.1384 -0.1870 137 116 253 0
-0.0636 -0.1384 -0.1870 138 116 253 0
-0.0595 -0.1376 -0.1860 138 114 252 0
-0.0558 -0.1376 -0.1860 140 113 252 0
-0.0518 -0.1369 -0.1850 139 112 253 0
-0.0481 -0.1369 -0.1850 140 111 253 0
-0.0444 -0.1369 -0.1850 140 111 253 0
-0.0405 -0.1362 -0.1840 142 110 253 0
-0.0368 -0.1362 -0.1840 141 109 252 0
-0.0331 -0.1362 -0.1840 141 108 251 0
-0.0293 -0.1354 -0.1830 141 106 252 0
-0.0256 -0.1354 -0.1830 141 106 252 0
-0.0220 -0.1354 -0.1830 140 104 252 0
-0.0183 -0.1354 -0.1830 139 103 251 0
-0.0146 -0.1347 -0.1820 139 103 253 0
-0.0109 -0.1347 -0.1820 138 102 252 0
-0.0073 -0.1347 -0.1820 137 101 251 0
-0.0036 -0.1347 -0.1820 135 101 250 0
0.0000 -0.1339 -0.1810 135 99 251 0
0.0036 -0.1339 -0.1810 133 98 252 0
0.0072 -0.1339 -0.1810 131 98 251 0
0.0109 -0.1339 -0.1810 129 98 251 0
0.0144 -0.1332 -0.1800 128 99 253 0
0.0180 -0.1332 -0.1800 124 98 251 0
0.0216 -0.1332 -0.1800 123 96 251 0
0.0253 -0.1339 -0.1810 122 97 251 0
0.0288 -0.1332 -0.1800 121 98 251 0
0.0326 -0.1339 -0.1810 118 97 250 0
0.0362 -0.1339 -0.1810 116 97 251 0
0.0398 -0.1339 -0.1810 114 97 251 0
0.0434 -0.1339 -0.1810 113 98 251 0
0.0471 -0.1339 -0.1810 110 100 251 0
0.0510 -0.1347 -0.1820 109 100 251 0
0.0546 -0.1347 -0.1820 107 103 252 0
0.0582 -0.1347 -0.1820 105 101 250 0
0.0619 -0.1347 -0.1820 105 102 251 0
0.0659 -0.1354 -0.1830 103 103 251 0
0.0695 -0.1354 -0.1830 102 104 251 0
0.0732 -0.1354 -0.1830 103 105 252 0
0.0773 -0.1362 -0.1840 101 106 252 0
0.0810 -0.1362 -0.1840 100 107 250 0
0.0851 -0.1369 -0.1850 99 107 250 0
0.0888 -0.1369 -0.1850 101 110 251 0
0.0925 -0.1369 -0.1850 102 111 252 0
0.0967 -0.1376 -0.1860 103 112 251 0
0.1004 -0.1376 -0.1860 104 113 252 0
0.1047 -0.1384 -0.1870 106 114 251 0
0.1085 -0.1384 -0.1870 107 115 252 0
0.1122 -0.1384 -0.1870 110 116 254 0
0.1159 -0.1384 -0.1870 111 117 255 0
0.1203 -0.1391 -0.1880 115 117 254 0
0.1241 -0.1391 -0.1880 116 118 255 0
0.1278 -0.1391 -0.1880 117 119 255 0
0.1323 -0.1399 -0.1890 118 120 255 0
0.1361 -0.1399 -0.1890 119 121 255 0
0.1399 -0.1399 -0.1890 119 122 255 0
0.1436 -0.1399 -0.1890 120 123 254 0
0.1474 -0.1399 -0.1890 120 123 254 0
0.1512 -0.1399 -0.1890 121 124 255 0
0.1558 -0.1406 -0.1900 121 124 255 0
0.1596 -0.1406 -0.1900 120 125 253 0
0.1634 -0.1406 -0.1900 120 125 253 0
0.1672 -0.1406 -0.1900 118 126 253 0
0.1719 -0.1413 -0.1910 118 127 254 0
0.1757 -0.1413 -0.1910 118 127 254 0
0.1795 -0.1413 -0.1910 114 127 255 0
0.1843 -0.1421 -0.1920 108 127 255 0
0.1882 -0.1421 -0.1920 99 127 252 0
0.1930 -0.1428 -0.1930 90 124 247 0
0.1989 -0.1443 -0.1950 80 122 242 0
0.2038 -0.1450 -0.1960 70 119 238 0
0.2088 -0.1458 -0.1970 65 117 235 0
0.2149 -0.1473 -0.1990 64 116 234 0
0.2200 -0.1480 -0.2000 63 115 233 0
0.2262 -0.1495 -0.2020 62 114 234 0
0.2314 -0.1502 -0.2030 62 114 234 0
0.2366 -0.1510 -0.2040 61 113 235 0
0.2431 -0.1524 -0.2060 61 113 235 0
0.2484 -0.1532 -0.2070 61 113 235 0
0.2550 -0.1547 -0.2090 62 112 235 0
0.2604 -0.1554 -0.2100 63 111 235 0
0.2659 -0.1561 -0.2110 65 110 235 0
0.2726 -0.1576 -0.2130 66 111 238 0
0.2782 -0.1584 -0.2140 66 111 238 0
0.2838 -0.1591 -0.2150 67 112 239 0
0.2908 -0.1606 -0.2170 69 112 240 0
0.2965 -0.1613 -0.2180 69 112 240 0
0.3022 -0.1621 -0.2190 70 113 241 0
0.3094 -0.1635 -0.2210 70 113 241 0
0.3152 -0.1643 -0.2220 71 114 242 0
0.3211 -0.1650 -0.2230 71 115 240 0
0.3270 -0.1658 -0.2240 74 115 241 0
0.3330 -0.1665 -0.2250 74 115 241 0
0.3390 -0.1672 -0.2260 75 116 242 0
0.3450 -0.1680 -0.2270 75 116 242 0
0.3511 -0.1687 -0.2280 74 118 241 0
0.3572 -0.1695 -0.2290 75 119 242 0
0.3634 -0.1702 -0.2300 75 119 242 0
0.3696 -0.1709 -0.2310 75 119 242 0
0.3758 -0.1717 -0.2320 75 121 243 0
0.3821 -0.1724 -0.2330 75 121 243 0
0.3884 -0.1732 -0.2340 76 122 244 0
0.3948 -0.1739 -0.2350 76 122 244 0
0.4012 -0.1746 -0.2360 77 123 245 0
0.4076 -0.1754 -0.2370 78 124 246 0
0.4141 -0.1761 -0.2380 79 125 247 0
0.4206 -0.1769 -0.2390 79 123 244 0
0.4272 -0.1776 -0.2400 80 124 245 0
0.4338 -0.1783 -0.2410 81 125 246 0
0.4386 -0.1783 -0.2410 81 125 246 0
0.4453 -0.1791 -0.2420 83 125 246 0
0.4520 -0.1798 -0.2430 84 126 247 0
0.4587 -0.1806 -0.2440 86 126 248 0
0.4655 -0.1813 -0.2450 86 126 248 0
0.4723 -0.1820 -0.2460 90 126 248 0
0.4792 -0.1828 -0.2470 90 126 248 0
0.4841 -0.1828 -0.2470 92 126 249 0
0.4910 -0.1835 -0.2480 93 127 250 0
0.4980 -0.1843 -0.2490 95 127 250 0
0.5050 -0.1850 -0.2500 96 128 251 0
0.5120 -0.1857 -0.2510 96 128 251 0
0.5171 -0.1857 -0.2510 96 128 251 0
0.5242 -0.1865 -0.2520 97 127 251 0
0.5313 -0.1872 -0.2530 98 128 252 0
0.5364 -0.1872 -0.2530 99 127 252 0
0.5436 -0.1880 -0.2540 102 127 253 0
0.5508 -0.1887 -0.2550 103 127 253 0
0.5559 -0.1887 -0.2550 106 127 254 0
0.5610 -0.1887 -0.2550 108 127 255 0
0.5661 -0.1887 -0.2550 110 128 255 0
0.5712 -0.1887 -0.2550 115 128 255 0
0.5763 -0.1887 -0.2550 122 131 226 0
0.0000 -0.0000 -0.0000 0 0 29 0
0.0023 -0.0007 -0.0010 0 0 0 0
0.0000 -0.0000 -0.0000 1 0 2 0
0.0000 -0.0000 -0.0000 1 1 3 0
0.0000 -0.0000 -0.0000 0 0 0 0
0.0000 -0.0000 -0.0000 0 1 0 0
0.0000 -0.0000 -0.0000 0 0 2 0
0.0000 -0.0000 -0.0000 0 0 2 0
0.0000 -0.0000 -0.0000 0 1 0 0
0.0000 -0.0000 -0.0000 0 0 0 0
0.0000 -0.0000 -0.0000 1 0 0 0
0.0000 -0.0000 -0.0000 1 0 0 0
0.0000 -0.0000 -0.0000 0 0 2 0
0.0000 -0.0000 -0.0000 0 0 4 0
-0.0000 -0.0000 -0.0000 0 0 0 0
-0.0000 -0.0000 -0.0000 0 0 0 0
-0.0000 -0.0000 -0.0000 0 1 0 0
-0.0000 -0.0000 -0.0000 0 1 0 0
-0.0000 -0.0000 -0.0000 1 0 2 0
-0.0000 -0.0000 -0.0000 0 0 2 0
-0.0000 -0.0000 -0.0000 0 0 0 0
-0.0000 -0.0000 -0.0000 0 1 0 0
-0.0000 -0.0000 -0.0000 0 0 0 0
-0.0000 -0.0000 -0.0000 0 0 29 0
-0.6018 -0.1938 -0.2550 111 132 223 0
-0.5944 -0.1930 -0.2540 109 135 254 0
-0.5916 -0.1938 -0.2550 115 135 255 0
-0.5865 -0.1938 -0.2550 120 137 255 0
-0.5814 -0.1938 -0.2550 125 135 255 0
-0.5763 -0.1938 -0.2550 128 134 254 0
-0.5712 -0.1938 -0.2550 131 136 254 0
-0.5661 -0.1938 -0.2550 134 136 255 0
-0.5610 -0.1938 -0.2550 135 136 254 0
-0.5559 -0.1938 -0.2550 138 134 254 0
-0.5508 -0.1938 -0.2550 139 134 254 0
-0.5457 -0.1938 -0.2550 143 133 255 0
-0.5406 -0.1938 -0.2550 145 134 254 0
-0.5355 -0.1938 -0.2550 148 134 255 0
-0.5304 -0.1938 -0.2550 148 133 252 0
-0.5253 -0.1938 -0.2550 150 135 254 0
-0.5202 -0.1938 -0.2550 151 136 253 0
-0.5151 -0.1938 -0.2550 151 136 253 0
-0.5080 -0.1930 -0.2540 152 134 252 0
-0.5009 -0.1923 -0.2530 153 135 253 0
-0.4959 -0.1923 -0.2530 154 135 253 0
-0.4889 -0.1915 -0.2520 153 134 252 0
-0.4838 -0.1915 -0.2520 155 134 251 0
-0.4769 -0.1908 -0.2510 155 134 251 0
-0.4700 -0.1900 -0.2500 158 135 252 0
-0.4631 -0.1892 -0.2490 158 135 252 0
-0.4582 -0.1892 -0.2490 157 134 251 0
-0.4514 -0.1885 -0.2480 157 134 251 0
-0.4446 -0.1877 -0.2470 157 134 251 0
-0.4397 -0.1877 -0.2470 157 134 251 0
-0.4330 -0.1870 -0.2460 158 133 251 0
-0.4263 -0.1862 -0.2450 158 133 251 0
-0.4197 -0.1854 -0.2440 160 132 251 0
-0.4148 -0.1854 -0.2440 160 132 251 0
-0.4082 -0.1847 -0.2430 160 132 251 0
-0.4034 -0.1847 -0.2430 160 132 251 0
-0.3969 -0.1839 -0.2420 159 131 250 0
-0.3904 -0.1832 -0.2410 158 130 249 0
-0.3856 -0.1832 -0.2410 160 131 249 0
-0.3792 -0.1824 -0.2400 160 131 249 0
-0.3728 -0.1816 -0.2390 162 131 250 0
-0.3665 -0.1809 -0.2380 162 131 250 0
-0.3618 -0.1809 -0.2380 165 130 250 0
-0.3555 -0.1801 -0.2370 165 130 250 0
-0.3493 -0.1794 -0.2360 167 129 248 0
-0.3431 -0.1786 -0.2350 167 129 248 0
-0.3384 -0.1786 -0.2350 167 129 248 0
-0.3323 -0.1778 -0.2340 167 129 248 0
-0.3262 -0.1771 -0.2330 169 130 247 0
-0.3202 -0.1763 -0.2320 169 130 247 0
-0.3142 -0.1756 -0.2310 172 129 247 0
-0.3082 -0.1748 -0.2300 172 129 247 0
-0.3023 -0.1740 -0.2290 173 128 247 0
-0.2964 -0.1733 -0.2280 174 129 248 0
-0.2918 -0.1733 -0.2280 176 128 246 0
-0.2860 -0.1725 -0.2270 176 128 246 0
-0.2802 -0.1718 -0.2260 175 127 245 0
-0.2745 -0.1710 -0.2250 175 127 245 0
-0.2688 -0.1702 -0.2240 176 127 245 0
-0.2631 -0.1695 -0.2230 176 127 245 0
-0.2575 -0.1687 -0.2220 177 126 245 0
-0.2519 -0.1680 -0.2210 177 126 245 0
-0.2464 -0.1672 -0.2200 176 125 244 0
-0.2409 -0.1664 -0.2190 177 126 245 0
-0.2354 -0.1657 -0.2180 179 125 245 0
-0.2300 -0.1649 -0.2170 179 125 245 0
-0.2246 -0.1642 -0.2160 179 125 247 0
-0.2193 -0.1634 -0.2150 178 124 246 0
-0.2140 -0.1626 -0.2140 178 124 246 0
-0.2087 -0.1619 -0.2130 178 122 245 0
-0.2035 -0.1611 -0.2120 180 122 245 0
-0.1983 -0.1604 -0.2110 179 121 244 0
-0.1932 -0.1596 -0.2100 180 120 242 0
-0.1881 -0.1588 -0.2090 181 119 242 0
-0.1830 -0.1581 -0.2080 183 119 242 0
-0.1780 -0.1573 -0.2070 182 118 241 0
-0.1722 -0.1558 -0.2050 183 117 241 0
-0.1673 -0.1550 -0.2040 183 117 241 0
-0.1624 -0.1543 -0.2030 183 117 243 0
-0.1576 -0.1535 -0.2020 182 117 243 0
-0.1520 -0.1520 -0.2000 179 117 244 0
-0.1473 -0.1512 -0.1990 178 117 244 0
-0.1426 -0.1505 -0.1980 177 116 246 0
-0.1379 -0.1497 -0.1970 174 115 244 0
-0.1333 -0.1490 -0.1960 172 115 246 0
-0.1287 -0.1482 -0.1950 171 115 248 0
-0.1248 -0.1482 -0.1950 167 115 249 0
-0.1203 -0.1474 -0.1940 164 116 251 0
-0.1158 -0.1467 -0.1930 163 117 252 0
-0.1119 -0.1467 -0.1930 158 118 251 0
-0.1075 -0.1459 -0.1920 154 118 252 0
-0.1037 -0.1459 -0.1920 150 118 253 0
-0.0993 -0.1452 -0.1910 146 118 254 0
-0.0955 -0.1452 -0.1910 143 120 254 0
-0.0912 -0.1444 -0.1900 142 120 255 0
-0.0874 -0.1444 -0.1900 138 120 254 0
-0.0832 -0.1436 -0.1890 137 119 255 0
-0.0794 -0.1436 -0.1890 135 119 254 0
-0.0752 -0.1429 -0.1880 135 119 254 0
-0.0714 -0.1429 -0.1880 136 118 254 0
-0.0673 -0.1421 -0.1870 136 118 254 0
-0.0636 -0.1421 -0.1870 135 117 253 0
-0.0595 -0.1414 -0.1860 138 116 253 0
-0.0558 -0.1414 -0.1860 139 115 253 0
-0.0521 -0.1414 -0.1860 138 114 254 0
-0.0484 -0.1414 -0.1860 140 113 254 0
-0.0444 -0.1406 -0.1850 140 113 254 0
-0.0407 -0.1406 -0.1850 140 111 253 0
-0.0370 -0.1406 -0.1850 142 110 253 0
-0.0333 -0.1406 -0.1850 141 109 252 0
-0.0294 -0.1398 -0.1840 141 107 253 0
-0.0258 -0.1398 -0.1840 141 107 253 0
-0.0220 -0.1391 -0.1830 140 106 253 0
-0.0183 -0.1391 -0.1830 139 105 252 0
-0.0146 -0.1391 -0.1830 139 105 254 0
-0.0110 -0.1391 -0.1830 138 104 253 0
-0.0073 -0.1391 -0.1830 137 103 252 0
-0.0036 -0.1383 -0.1820 135 102 251 0
0.0000 -0.1383 -0.1820 135 100 252 0
0.0036 -0.1383 -0.1820 133 100 251 0
0.0073 -0.1383 -0.1820 132 99 252 0
0.0109 -0.1376 -0.1810 130 99 252 0
0.0145 -0.1376 -0.1810 129 100 252 0
0.0181 -0.1376 -0.1810 125 99 250 0
0.0217 -0.1376 -0.1810 124 98 251 0
0.0253 -0.1376 -0.1810 122 97 250 0
0.0290 -0.1376 -0.1810 122 99 252 0
0.0326 -0.1376 -0.1810 119 98 251 0
0.0362 -0.1376 -0.1810 117 98 250 0
0.0400 -0.1383 -0.1820 114 99 250 0
0.0437 -0.1383 -0.1820 113 100 250 0
0.0473 -0.1383 -0.1820 111 101 250 0
0.0510 -0.1383 -0.1820 110 102 250 0
0.0546 -0.1383 -0.1820 108 104 251 0
0.0586 -0.1391 -0.1830 107 103 252 0
0.0622 -0.1391 -0.1830 106 103 252 0
0.0662 -0.1398 -0.1840 104 104 250 0
0.0699 -0.1398 -0.1840 103 105 250 0
0.0736 -0.1398 -0.1840 103 105 250 0
0.0773 -0.1398 -0.1840 102 107 251 0
0.0814 -0.1406 -0.1850 101 108 251 0
0.0851 -0.1406 -0.1850 102 109 252 0
0.0893 -0.1414 -0.1860 101 110 251 0
0.0930 -0.1414 -0.1860 102 111 252 0
0.0967 -0.1414 -0.1860 103 112 251 0
0.1010 -0.1421 -0.1870 104 113 252 0
0.1047 -0.1421 -0.1870 106 114 251 0
0.1090 -0.1429 -0.1880 107 115 252 0
0.1128 -0.1429 -0.1880 110 116 252 0
0.1166 -0.1429 -0.1880 111 117 253 0
0.1203 -0.1429 -0.1880 115 117 254 0
0.1241 -0.1429 -0.1880 116 118 255 0
0.1285 -0.1436 -0.1890 119 118 254 0
0.1323 -0.1436 -0.1890 120 119 255 0
0.1361 -0.1436 -0.1890 120 119 255 0
0.1399 -0.1436 -0.1890 121 121 255 0
0.1436 -0.1436 -0.1890 121 121 253 0
0.1474 -0.1436 -0.1890 121 121 253 0
0.1520 -0.1444 -0.1900 120 123 252 0
0.1558 -0.1444 -0.1900 121 124 253 0
0.1596 -0.1444 -0.1900 120 125 253 0
0.1634 -0.1444 -0.1900 120 125 253 0
0.1672 -0.1444 -0.1900 118 125 255 0
0.1719 -0.1452 -0.1910 119 126 255 0
0.1757 -0.1452 -0.1910 117 126 255 0
0.1795 -0.1452 -0.1910 113 126 254 0
0.1843 -0.1459 -0.1920 106 125 253 0
0.1891 -0.1467 -0.1930 97 125 251 0
0.1940 -0.1474 -0.1940 87 121 245 0
0.1989 -0.1482 -0.1950 77 119 240 0
0.2038 -0.1490 -0.1960 67 116 237 0
0.2099 -0.1505 -0.1980 64 114 235 0
0.2149 -0.1512 -0.1990 62 112 233 0
0.2200 -0.1520 -0.2000 61 111 232 0
0.2262 -0.1535 -0.2020 61 111 234 0
0.2314 -0.1543 -0.2030 61 111 234 0
0.2378 -0.1558 -0.2050 61 111 236 0
0.2431 -0.1566 -0.2060 61 111 236 0
0.2496 -0.1581 -0.2080 61 111 236 0
0.2550 -0.1588 -0.2090 62 110 236 0
0.2616 -0.1604 -0.2110 64 109 236 0
0.2671 -0.1611 -0.2120 65 108 236 0
0.2726 -0.1619 -0.2130 65 108 236 0
0.2782 -0.1626 -0.2140 66 109 237 0
0.2851 -0.1642 -0.2160 67 110 238 0
0.2908 -0.1649 -0.2170 69 110 238 0
0.2965 -0.1657 -0.2180 70 111 239 0
0.3036 -0.1672 -0.2200 70 111 239 0
0.3094 -0.1680 -0.2210 71 112 240 0
0.3152 -0.1687 -0.2220 72 113 241 0
0.3211 -0.1695 -0.2230 72 113 241 0
0.3270 -0.1702 -0.2240 74 113 242 0
0.3330 -0.1710 -0.2250 74 113 242 0
0.3405 -0.1725 -0.2270 74 115 241 0
0.3466 -0.1733 -0.2280 74 115 241 0
0.3527 -0.1740 -0.2290 75 116 242 0
0.3588 -0.1748 -0.2300 76 117 243 0
0.3650 -0.1756 -0.2310 74 118 243 0
0.3712 -0.1763 -0.2320 75 119 244 0
0.3758 -0.1763 -0.2320 75 119 244 0
0.3821 -0.1771 -0.2330 76 120 245 0
0.3884 -0.1778 -0.2340 76 120 245 0
0.3948 -0.1786 -0.2350 77 121 244 0
0.4012 -0.1794 -0.2360 78 122 245 0
0.4076 -0.1801 -0.2370 78 122 245 0
0.4141 -0.1809 -0.2380 79 123 246 0
0.4206 -0.1816 -0.2390 79 123 246 0
0.4272 -0.1824 -0.2400 80 124 247 0
0.4338 -0.1832 -0.2410 82 124 245 0
0.4386 -0.1832 -0.2410 83 125 246 0
0.4453 -0.1839 -0.2420 84 124 246 0
0.4520 -0.1847 -0.2430 84 124 246 0
0.4587 -0.1854 -0.2440 85 125 247 0
0.4655 -0.1862 -0.2450 86 126 248 0
0.4723 -0.1870 -0.2460 89 125 248 0
0.4792 -0.1877 -0.2470 90 126 249 0
0.4841 -0.1877 -0.2470 92 126 250 0
0.4910 -0.1885 -0.2480 93 127 251 0
0.4980 -0.1892 -0.2490 95 127 250 0
0.5050 -0.1900 -0.2500 96 128 251 0
0.5120 -0.1908 -0.2510 97 127 251 0
0.5171 -0.1908 -0.2510 98 128 252 0
0.5242 -0.1915 -0.2520 98 128 252 0
0.5313 -0.1923 -0.2530 98 128 252 0
0.5364 -0.1923 -0.2530 100 128 253 0
0.5436 -0.1930 -0.2540 102 127 253 0
0.5508 -0.1938 -0.2550 104 128 252 0
0.5559 -0.1938 -0.2550 106 127 252 0
0.5610 -0.1938 -0.2550 108 128 253 0
0.5661 -0.1938 -0.2550 112 127 254 0
0.5712 -0.1938 -0.2550 115 128 255 0
0.5763 -0.1938 -0.2550 123 132 227 0
0.0000 -0.0000 -0.0000 0 0 29 0
0.0023 -0.0008 -0.0010 0 0 0 0
0.0000 -0.0000 -0.0000 1 0 2 0
0.0000 -0.0000 -0.0000 1 1 3 0
0.0000 -0.0000 -0.0000 0 0 0 0
0.0000 -0.0000 -0.0000 0 1 0 0
0.0000 -0.0000 -0.0000 0 0 2 0
0.0000 -0.0000 -0.0000 0 0 2 0
0.0000 -0.0000 -0.0000 0 1 0 0
0.0000 -0.0000 -0.0000 0 0 0 0
0.0000 -0.0000 -0.0000 1 0 0 0
0.0000 -0.0000 -0.0000 1 0 0 0
0.0000 -0.0000 -0.0000 0 0 2 0
0.0000 -0.0000 -0.0000 0 0 4 0
-0.0000 -0.0000 -0.0000 0 0 0 0
-0.0000 -0.0000 -0.0000 0 0 0 0
-0.0000 -0.0000 -0.0000 0 1 0 0
-0.0000 -0.0000 -0.0000 0 1 0 0
-0.0000 -0.0000 -0.0000 1 0 2 0
-0.0000 -0.0000 -0.0000 0 0 2 0
-0.0000 -0.0000 -0.0000 0 0 0 0
-0.0000 -0.0000 -0.0000 0 1 0 0
-0.0000 -0.0000 -0.0000 0 0 0 0
-0.0000 -0.0000 -0.0000 0 0 29 0
-0.6018 -0.1989 -0.2550 111 132 223 0
-0.5944 -0.1981 -0.2540 109 135 254 0
-0.5916 -0.1989 -0.2550 115 135 255 0
-0.5865 -0.1989 -0.2550 121 136 255 0
-0.5814 -0.1989 -0.2550 126 135 255 0
-0.5763 -0.1989 -0.2550 129 134 254 0
-0.5712 -0.1989 -0.2550 133 135 254 0
-0.5661 -0.1989 -0.2550 135 135 255 0
-0.5610 -0.1989 -0.2550 136 135 254 0
-0.5559 -0.1989 -0.2550 138 134 254 0
-0.5508 -0.1989 -0.2550 141 133 254 0
-0.5457 -0.1989 -0.2550 143 134 253 0
-0.5406 -0.1989 -0.2550 145 134 254 0
-0.5355 -0.1989 -0.2550 147 134 252 0
-0.5304 -0.1989 -0.2550 149 134 253 0
-0.5253 -0.1989 -0.2550 150 135 254 0
-0.5202 -0.1989 -0.2550 151 136 253 0
-0.5151 -0.1989 -0.2550 151 136 253 0
-0.5080 -0.1981 -0.2540 152 134 252 0
-0.5009 -0.1973 -0.2530 153 135 253 0
-0.4939 -0.1966 -0.2520 154 135 253 0
-0.4889 -0.1966 -0.2520 153 134 252 0
-0.4838 -0.1966 -0.2520 154 133 250 0
-0.4769 -0.1958 -0.2510 155 134 251 0
-0.4700 -0.1950 -0.2500 158 135 252 0
-0.4631 -0.1942 -0.2490 158 135 252 0
-0.4582 -0.1942 -0.2490 157 134 251 0
-0.4514 -0.1934 -0.2480 157 134 251 0
-0.4446 -0.1927 -0.2470 157 134 251 0
-0.4397 -0.1927 -0.2470 157 134 251 0
-0.4330 -0.1919 -0.2460 158 133 251 0
-0.4263 -0.1911 -0.2450 158 133 251 0
-0.4197 -0.1903 -0.2440 160 132 251 0
-0.4148 -0.1903 -0.2440 160 132 251 0
-0.4082 -0.1895 -0.2430 160 132 251 0
-0.4034 -0.1895 -0.2430 160 132 251 0
-0.3969 -0.1888 -0.2420 158 130 249 0
-0.3904 -0.1880 -0.2410 157 129 248 0
-0.3856 -0.1880 -0.2410 160 131 249 0
-0.3792 -0.1872 -0.2400 160 131 249 0
-0.3713 -0.1856 -0.2380 161 130 249 0
-0.3665 -0.1856 -0.2380 162 131 250 0
-0.3618 -0.1856 -0.2380 165 130 250 0
-0.3555 -0.1849 -0.2370 165 130 250 0
-0.3493 -0.1841 -0.2360 167 129 248 0
-0.3431 -0.1833 -0.2350 167 129 248 0
-0.3370 -0.1825 -0.2340 167 129 248 0
-0.3323 -0.1825 -0.2340 167 129 248 0
-0.3262 -0.1817 -0.2330 169 130 247 0
-0.3202 -0.1810 -0.2320 170 131 248 0
-0.3142 -0.1802 -0.2310 173 130 248 0
-0.3082 -0.1794 -0.2300 173 130 248 0
-0.3023 -0.1786 -0.2290 174 129 248 0
-0.2977 -0.1786 -0.2290 174 129 248 0
-0.2918 -0.1778 -0.2280 176 128 246 0
-0.2860 -0.1771 -0.2270 176 128 246 0
-0.2802 -0.1763 -0.2260 176 128 246 0
-0.2745 -0.1755 -0.2250 175 127 245 0
-0.2688 -0.1747 -0.2240 176 127 245 0
-0.2631 -0.1739 -0.2230 176 127 245 0
-0.2575 -0.1732 -0.2220 177 126 245 0
-0.2519 -0.1724 -0.2210 177 126 245 0
-0.2464 -0.1716 -0.2200 176 125 244 0
-0.2409 -0.1708 -0.2190 176 125 244 0
-0.2354 -0.1700 -0.2180 179 125 245 0
-0.2300 -0.1693 -0.2170 179 125 245 0
-0.2246 -0.1685 -0.2160 179 125 247 0
-0.2193 -0.1677 -0.2150 178 124 246 0
-0.2140 -0.1669 -0.2140 177 123 245 0
-0.2087 -0.1661 -0.2130 177 123 245 0
-0.2035 -0.1654 -0.2120 178 122 245 0
-0.1993 -0.1654 -0.2120 180 122 245 0
-0.1932 -0.1638 -0.2100 181 121 243 0
-0.1881 -0.1630 -0.2090 180 120 242 0
-0.1830 -0.1622 -0.2080 181 119 242 0
-0.1780 -0.1615 -0.2070 183 119 242 0
-0.1722 -0.1599 -0.2050 183 119 242 0
-0.1673 -0.1591 -0.2040 183 119 242 0
-0.1624 -0.1583 -0.2030 182 117 243 0
-0.1576 -0.1576 -0.2020 179 117 242 0
-0.1520 -0.1560 -0.2000 178 116 243 0
-0.1473 -0.1552 -0.1990 177 116 243 0
-0.1426 -0.1544 -0.1980 175 116 245 0
-0.1379 -0.1537 -0.1970 173 114 243 0
-0.1333 -0.1529 -0.1960 171 114 245 0
-0.1287 -0.1521 -0.1950 170 114 247 0
-0.1248 -0.1521 -0.1950 167 115 249 0
-0.1203 -0.1513 -0.1940 164 116 251 0
-0.1158 -0.1505 -0.1930 162 116 251 0
-0.1119 -0.1505 -0.1930 159 117 251 0
-0.1081 -0.1505 -0.1930 155 117 252 0
-0.1037 -0.1498 -0.1920 150 118 251 0
-0.0993 -0.1490 -0.1910 146 119 252 0
-0.0955 -0.1490 -0.1910 143 120 254 0
-0.0912 -0.1482 -0.1900 142 120 255 0
-0.0874 -0.1482 -0.1900 140 120 254 0
-0.0832 -0.1474 -0.1890 137 119 255 0
-0.0794 -0.1474 -0.1890 136 120 255 0
-0.0752 -0.1466 -0.1880 135 119 254 0
-0.0714 -0.1466 -0.1880 135 119 254 0
-0.0677 -0.1466 -0.1880 135 119 254 0
-0.0639 -0.1466 -0.1880 135 119 254 0
-0.0598 -0.1459 -0.1870 137 116 253 0
-0.0558 -0.1451 -0.1860 137 115 252 0
-0.0521 -0.1451 -0.1860 137 114 254 0
-0.0484 -0.1451 -0.1860 138 114 254 0
-0.0446 -0.1451 -0.1860 138 114 254 0
-0.0407 -0.1443 -0.1850 139 112 253 0
-0.0370 -0.1443 -0.1850 140 111 253 0
-0.0333 -0.1443 -0.1850 141 109 252 0
-0.0294 -0.1435 -0.1840 140 108 253 0
-0.0258 -0.1435 -0.1840 140 108 253 0
-0.0221 -0.1435 -0.1840 140 106 253 0
-0.0184 -0.1435 -0.1840 138 106 252 0
-0.0146 -0.1427 -0.1830 138 104 253 0
-0.0110 -0.1427 -0.1830 137 104 253 0
-0.0073 -0.1427 -0.1830 136 103 252 0
-0.0037 -0.1427 -0.1830 135 102 251 0
0.0000 -0.1427 -0.1830 134 101 252 0
0.0037 -0.1427 -0.1830 131 101 251 0
0.0073 -0.1420 -0.1820 131 100 253 0
0.0109 -0.1420 -0.1820 130 101 253 0
0.0146 -0.1420 -0.1820 127 101 252 0
0.0182 -0.1420 -0.1820 125 101 251 0
0.0218 -0.1420 -0.1820 123 98 251 0
0.0255 -0.1420 -0.1820 122 99 251 0
0.0291 -0.1420 -0.1820 120 99 252 0
0.0328 -0.1420 -0.1820 118 99 251 0
0.0364 -0.1420 -0.1820 118 99 251 0
0.0400 -0.1420 -0.1820 115 100 251 0
0.0437 -0.1420 -0.1820 114 101 251 0
0.0473 -0.1420 -0.1820 112 102 251 0
0.0512 -0.1427 -0.1830 111 103 251 0
0.0549 -0.1427 -0.1830 110 104 252 0
0.0586 -0.1427 -0.1830 108 104 253 0
0.0626 -0.1435 -0.1840 107 104 253 0
0.0662 -0.1435 -0.1840 105 105 251 0
0.0699 -0.1435 -0.1840 104 106 251 0
0.0736 -0.1435 -0.1840 104 106 251 0
0.0777 -0.1443 -0.1850 103 108 252 0
0.0814 -0.1443 -0.1850 102 109 252 0
0.0856 -0.1451 -0.1860 103 110 252 0
0.0893 -0.1451 -0.1860 102 111 252 0
0.0930 -0.1451 -0.1860 103 112 251 0
0.0972 -0.1459 -0.1870 104 113 252 0
0.1010 -0.1459 -0.1870 105 114 251 0
0.1053 -0.1466 -0.1880 107 115 252 0
0.1090 -0.1466 -0.1880 108 116 253 0
0.1128 -0.1466 -0.1880 111 117 253 0
0.1166 -0.1466 -0.1880 114 118 254 0
0.1210 -0.1474 -0.1890 116 118 255 0
0.1247 -0.1474 -0.1890 117 119 255 0
0.1285 -0.1474 -0.1890 120 119 255 0
0.1323 -0.1474 -0.1890 121 120 255 0
0.1361 -0.1474 -0.1890 121 121 255 0
0.1399 -0.1474 -0.1890 121 121 255 0
0.1436 -0.1474 -0.1890 121 121 253 0
0.1474 -0.1474 -0.1890 122 122 254 0
0.1520 -0.1482 -0.1900 120 123 252 0
0.1558 -0.1482 -0.1900 120 123 252 0
0.1596 -0.1482 -0.1900 120 125 253 0
0.1634 -0.1482 -0.1900 120 125 253 0
0.1672 -0.1482 -0.1900 119 126 255 0
0.1719 -0.1490 -0.1910 119 126 255 0
0.1757 -0.1490 -0.1910 117 126 255 0
0.1795 -0.1490 -0.1910 112 125 255 0
0.1843 -0.1498 -0.1920 105 124 253 0
0.1891 -0.1505 -0.1930 95 123 249 0
0.1940 -0.1513 -0.1940 86 120 246 0
0.1989 -0.1521 -0.1950 76 116 240 0
0.2038 -0.1529 -0.1960 68 114 236 0
0.2099 -0.1544 -0.1980 62 112 233 0
0.2149 -0.1552 -0.1990 62 111 232 0
0.2211 -0.1568 -0.2010 61 109 233 0
0.2274 -0.1583 -0.2030 61 109 233 0
0.2326 -0.1591 -0.2040 61 109 233 0
0.2378 -0.1599 -0.2050 61 109 235 0
0.2443 -0.1615 -0.2070 61 109 235 0
0.2496 -0.1622 -0.2080 61 109 235 0
0.2550 -0.1630 -0.2090 64 109 236 0
0.2616 -0.1646 -0.2110 65 108 236 0
0.2671 -0.1654 -0.2120 65 108 236 0
0.2726 -0.1661 -0.2130 65 108 236 0
0.2782 -0.1669 -0.2140 66 109 237 0
0.2851 -0.1685 -0.2160 69 110 238 0
0.2908 -0.1693 -0.2170 69 110 238 0
0.2978 -0.1708 -0.2190 70 111 239 0
0.3036 -0.1716 -0.2200 70 111 239 0
0.3094 -0.1724 -0.2210 71 112 240 0
0.3152 -0.1732 -0.2220 72 113 241 0
0.3211 -0.1739 -0.2230 73 112 241 0
0.3270 -0.1747 -0.2240 73 112 241 0
0.3345 -0.1763 -0.2260 74 113 242 0
0.3405 -0.1771 -0.2270 75 114 243 0
0.3466 -0.1778 -0.2280 74 115 241 0
0.3527 -0.1786 -0.2290 75 116 242 0
0.3604 -0.1802 -0.2310 76 117 243 0
0.3666 -0.1810 -0.2320 77 118 244 0
0.3712 -0.1810 -0.2320 74 118 243 0
0.3775 -0.1817 -0.2330 75 119 244 0
0.3838 -0.1825 -0.2340 76 120 245 0
0.3901 -0.1833 -0.2350 76 120 245 0
0.3948 -0.1833 -0.2350 77 121 244 0
0.4012 -0.1841 -0.2360 77 121 244 0
0.4076 -0.1849 -0.2370 78 122 245 0
0.4141 -0.1856 -0.2380 79 123 246 0
0.4206 -0.1864 -0.2390 79 123 246 0
0.4272 -0.1872 -0.2400 79 123 246 0
0.4338 -0.1880 -0.2410 82 124 245 0
0.4404 -0.1888 -0.2420 83 125 246 0
0.4453 -0.1888 -0.2420 84 124 246 0
0.4520 -0.1895 -0.2430 84 124 246 0
0.4587 -0.1903 -0.2440 85 125 247 0
0.4655 -0.1911 -0.2450 86 124 247 0
0.4723 -0.1919 -0.2460 89 125 248 0
0.4792 -0.1927 -0.2470 90 126 249 0
0.4841 -0.1927 -0.2470 91 125 249 0
0.4910 -0.1934 -0.2480 92 126 250 0
0.4980 -0.1942 -0.2490 95 127 250 0
0.5050 -0.1950 -0.2500 96 128 251 0
0.5120 -0.1958 -0.2510 97 127 251 0
0.5171 -0.1958 -0.2510 98 128 252 0
0.5242 -0.1966 -0.2520 98 128 252 0
0.5313 -0.1973 -0.2530 98 128 252 0
0.5364 -0.1973 -0.2530 102 127 253 0
0.5436 -0.1981 -0.2540 102 127 253 0
0.5508 -0.1989 -0.2550 106 127 252 0
0.5559 -0.1989 -0.2550 107 128 253 0
0.5610 -0.1989 -0.2550 110 128 254 0
0.5661 -0.1989 -0.2550 113 128 255 0
0.5712 -0.1989 -0.2550 115 128 255 0
0.5763 -0.1989 -0.2550 123 132 227 0
0.0000 -0.0000 -0.0000 0 0 29 0
0.0023 -0.0008 -0.0010 0 0 0 0
0.0000 -0.0000 -0.0000 1 0 2 0
0.0000 -0.0000 -0.0000 1 1 3 0
0.0000 -0.0000 -0.0000 0 0 0 0
0.0000 -0.0000 -0.0000 0 1 0 0
0.0000 -0.0000 -0.0000 0 0 2 0
0.0000 -0.0000 -0.0000 0 0 2 0
0.0000 -0.0000 -0.0000 0 1 0 0
0.0000 -0.0000 -0.0000 0 0 0 0
0.0000 -0.0000 -0.0000 1 0 0 0
0.0000 -0.0000 -0.0000 1 0 0 0
0.0000 -0.0000 -0.0000 0 0 2 0
0.0000 -0.0000 -0.0000 0 0 4 0
-0.0000 -0.0000 -0.0000 0 0 0 0
-0.0000 -0.0000 -0.0000 0 0 0 0
-0.0000 -0.0000 -0.0000 0 1 0 0
-0.0000 -0.0000 -0.0000 0 1 0 0
-0.0000 -0.0000 -0.0000 1 0 2 0
-0.0000 -0.0000 -0.0000 0 0 2 0
-0.0000 -0.0000 -0.0000 0 0 0 0
-0.0000 -0.0000 -0.0000 0 1 0 0
-0.0000 -0.0000 -0.0000 0 0 0 0
-0.0000 -0.0000 -0.0000 0 0 28 0
-0.6018 -0.2040 -0.2550 112 133 224 0
-0.5944 -0.2032 -0.2540 109 135 254 0
-0.5916 -0.2040 -0.2550 115 135 255 0
-0.5865 -0.2040 -0.2550 121 136 255 0
-0.5814 -0.2040 -0.2550 125 134 255 0
-0.5763 -0.2040 -0.2550 130 135 255 0
-0.5712 -0.2040 -0.2550 133 135 254 0
-0.5661 -0.2040 -0.2550 135 135 255 0
-0.5610 -0.2040 -0.2550 136 135 254 0
-0.5559 -0.2040 -0.2550 139 135 255 0
-0.5508 -0.2040 -0.2550 142 134 253 0
-0.5457 -0.2040 -0.2550 143 134 253 0
-0.5406 -0.2040 -0.2550 145 134 254 0
-0.5355 -0.2040 -0.2550 148 135 253 0
-0.5304 -0.2040 -0.2550 150 135 254 0
-0.5253 -0.2040 -0.2550 150 135 252 0
-0.5202 -0.2040 -0.2550 153 135 253 0
-0.5131 -0.2032 -0.2540 153 135 253 0
-0.5060 -0.2024 -0.2530 154 135 253 0
-0.5009 -0.2024 -0.2530 154 135 253 0
-0.4939 -0.2016 -0.2520 154 135 251 0
-0.4889 -0.2016 -0.2520 153 134 250 0
-0.4819 -0.2008 -0.2510 155 134 251 0
-0.4750 -0.2000 -0.2500 155 134 251 0
-0.4700 -0.2000 -0.2500 155 134 251 0
-0.4631 -0.1992 -0.2490 155 134 251 0
-0.4563 -0.1984 -0.2480 157 134 251 0
-0.4514 -0.1984 -0.2480 157 134 251 0
-0.4446 -0.1976 -0.2470 157 134 251 0
-0.4379 -0.1968 -0.2460 157 134 251 0
-0.4330 -0.1968 -0.2460 158 133 251 0
-0.4263 -0.1960 -0.2450 158 133 251 0
-0.4197 -0.1952 -0.2440 158 133 251 0
-0.4148 -0.1952 -0.2440 158 133 251 0
-0.4082 -0.1944 -0.2430 160 132 251 0
-0.4017 -0.1936 -0.2420 160 132 251 0
-0.3952 -0.1928 -0.2410 159 131 250 0
-0.3904 -0.1928 -0.2410 159 131 250 0
-0.3840 -0.1920 -0.2400 160 131 249 0
-0.3792 -0.1920 -0.2400 160 131 249 0
-0.3728 -0.1912 -0.2390 162 131 250 0
-0.3665 -0.1904 -0.2380 162 131 250 0
-0.3618 -0.1904 -0.2380 165 130 250 0
-0.3555 -0.1896 -0.2370 165 130 250 0
-0.3493 -0.1888 -0.2360 168 130 249 0
-0.3431 -0.1880 -0.2350 168 130 249 0
-0.3370 -0.1872 -0.2340 168 131 247 0
-0.3323 -0.1872 -0.2340 168 131 247 0
-0.3262 -0.1864 -0.2330 169 130 247 0
-0.3202 -0.1856 -0.2320 169 130 247 0
-0.3142 -0.1848 -0.2310 173 130 248 0
-0.3082 -0.1840 -0.2300 173 130 248 0
-0.3023 -0.1832 -0.2290 174 129 246 0
-0.2977 -0.1832 -0.2290 174 129 246 0
-0.2918 -0.1824 -0.2280 176 128 246 0
-0.2860 -0.1816 -0.2270 176 128 246 0
-0.2802 -0.1808 -0.2260 176 128 246 0
-0.2745 -0.1800 -0.2250 176 128 246 0
-0.2688 -0.1792 -0.2240 177 128 246 0
-0.2631 -0.1784 -0.2230 177 128 246 0
-0.2575 -0.1776 -0.2220 176 127 245 0
-0.2519 -0.1768 -0.2210 176 127 245 0
-0.2464 -0.1760 -0.2200 177 126 245 0
-0.2409 -0.1752 -0.2190 177 126 245 0
-0.2354 -0.1744 -0.2180 177 126 245 0
-0.2300 -0.1736 -0.2170 177 126 245 0
-0.2246 -0.1728 -0.2160 177 126 247 0
-0.2193 -0.1720 -0.2150 176 125 246 0
-0.2140 -0.1712 -0.2140 176 125 246 0
-0.2087 -0.1704 -0.2130 177 123 245 0
-0.2035 -0.1696 -0.2120 178 122 245 0
-0.1983 -0.1688 -0.2110 178 122 245 0
-0.1932 -0.1680 -0.2100 180 122 245 0
-0.1881 -0.1672 -0.2090 181 121 245 0
-0.1830 -0.1664 -0.2080 180 120 242 0
-0.1780 -0.1656 -0.2070 181 119 242 0
-0.1730 -0.1648 -0.2060 180 118 241 0
-0.1681 -0.1640 -0.2050 180 118 241 0
-0.1624 -0.1624 -0.2030 179 117 242 0
-0.1576 -0.1616 -0.2020 179 117 242 0
-0.1528 -0.1608 -0.2010 179 117 244 0
-0.1480 -0.1600 -0.2000 177 116 243 0
-0.1433 -0.1592 -0.1990 175 116 245 0
-0.1379 -0.1576 -0.1970 174 115 244 0
-0.1333 -0.1568 -0.1960 171 114 245 0
-0.1287 -0.1560 -0.1950 170 114 247 0
-0.1248 -0.1560 -0.1950 167 115 249 0
-0.1209 -0.1560 -0.1950 163 115 250 0
-0.1164 -0.1552 -0.1940 162 116 251 0
-0.1119 -0.1544 -0.1930 160 116 251 0
-0.1075 -0.1536 -0.1920 157 117 252 0
-0.1037 -0.1536 -0.1920 151 118 251 0
-0.0993 -0.1528 -0.1910 149 119 253 0
-0.0955 -0.1528 -0.1910 145 119 252 0
-0.0912 -0.1520 -0.1900 143 120 254 0
-0.0874 -0.1520 -0.1900 140 120 253 0
-0.0836 -0.1520 -0.1900 137 119 253 0
-0.0794 -0.1512 -0.1890 135 119 252 0
-0.0756 -0.1512 -0.1890 134 120 255 0
-0.0714 -0.1504 -0.1880 133 119 254 0
-0.0677 -0.1504 -0.1880 132 118 255 0
-0.0636 -0.1496 -0.1870 133 116 254 0
-0.0598 -0.1496 -0.1870 137 116 255 0
-0.0561 -0.1496 -0.1870 137 116 255 0
-0.0521 -0.1488 -0.1860 137 116 255 0
-0.0484 -0.1488 -0.1860 137 114 254 0
-0.0446 -0.1488 -0.1860 138 114 254 0
-0.0409 -0.1488 -0.1860 140 113 254 0
-0.0370 -0.1480 -0.1850 139 112 253 0
-0.0333 -0.1480 -0.1850 139 110 252 0
-0.0296 -0.1480 -0.1850 138 109 253 0
-0.0259 -0.1480 -0.1850 138 109 253 0
-0.0221 -0.1472 -0.1840 139 107 253 0
-0.0184 -0.1472 -0.1840 136 106 252 0
-0.0147 -0.1472 -0.1840 137 105 251 0
-0.0110 -0.1472 -0.1840 135 105 251 0
-0.0074 -0.1472 -0.1840 134 104 252 0
-0.0037 -0.1472 -0.1840 133 103 251 0
0.0000 -0.1464 -0.1830 132 102 252 0
0.0037 -0.1464 -0.1830 132 102 252 0
0.0073 -0.1464 -0.1830 130 101 251 0
0.0110 -0.1464 -0.1830 128 102 251 0
0.0146 -0.1464 -0.1830 127 101 252 0
0.0183 -0.1464 -0.1830 125 101 251 0
0.0220 -0.1464 -0.1830 124 100 250 0
0.0256 -0.1464 -0.1830 122 99 249 0
0.0293 -0.1464 -0.1830 120 100 251 0
0.0329 -0.1464 -0.1830 119 100 251 0
0.0366 -0.1464 -0.1830 118 99 250 0
0.0403 -0.1464 -0.1830 115 101 250 0
0.0439 -0.1464 -0.1830 114 102 250 0
0.0476 -0.1464 -0.1830 112 102 250 0
0.0515 -0.1472 -0.1840 112 104 251 0
0.0552 -0.1472 -0.1840 110 105 251 0
0.0589 -0.1472 -0.1840 109 105 252 0
0.0626 -0.1472 -0.1840 107 105 251 0
0.0662 -0.1472 -0.1840 105 105 251 0
0.0703 -0.1480 -0.1850 104 106 251 0
0.0740 -0.1480 -0.1850 104 106 251 0
0.0777 -0.1480 -0.1850 102 107 251 0
0.0818 -0.1488 -0.1860 102 109 251 0
0.0856 -0.1488 -0.1860 102 109 251 0
0.0898 -0.1496 -0.1870 102 111 252 0
0.0935 -0.1496 -0.1870 103 112 251 0
0.0972 -0.1496 -0.1870 105 114 253 0
0.1010 -0.1496 -0.1870 106 115 252 0
0.1047 -0.1496 -0.1870 108 116 253 0
0.1090 -0.1504 -0.1880 109 117 252 0
0.1128 -0.1504 -0.1880 112 118 254 0
0.1166 -0.1504 -0.1880 115 119 255 0
0.1210 -0.1512 -0.1890 116 118 253 0
0.1247 -0.1512 -0.1890 119 118 254 0
0.1285 -0.1512 -0.1890 120 119 255 0
0.1323 -0.1512 -0.1890 121 120 255 0
0.1361 -0.1512 -0.1890 121 121 255 0
0.1399 -0.1512 -0.1890 122 122 255 0
0.1436 -0.1512 -0.1890 122 122 254 0
0.1482 -0.1520 -0.1900 122 122 254 0
0.1520 -0.1520 -0.1900 121 124 255 0
0.1550 -0.1512 -0.1890 121 124 255 0
0.1588 -0.1512 -0.1890 120 125 255 0
0.1634 -0.1520 -0.1900 120 125 255 0
0.1681 -0.1528 -0.1910 119 126 255 0
0.1719 -0.1528 -0.1910 119 126 255 0
0.1757 -0.1528 -0.1910 116 125 255 0
0.1786 -0.1520 -0.1900 110 123 253 0
0.1834 -0.1528 -0.1910 104 123 254 0
0.1882 -0.1536 -0.1920 95 120 249 0
0.1940 -0.1552 -0.1940 85 115 245 0
0.1989 -0.1560 -0.1950 73 112 239 0
0.2049 -0.1576 -0.1970 66 110 235 0
0.2099 -0.1584 -0.1980 60 108 232 0
0.2160 -0.1600 -0.2000 62 107 232 0
0.2211 -0.1608 -0.2010 62 107 234 0
0.2274 -0.1624 -0.2030 62 107 234 0
0.2326 -0.1632 -0.2040 62 107 234 0
0.2390 -0.1648 -0.2060 63 108 237 0
0.2443 -0.1656 -0.2070 63 108 237 0
0.2496 -0.1664 -0.2080 62 107 236 0
0.2562 -0.1680 -0.2100 62 107 236 0
0.2629 -0.1696 -0.2120 66 106 237 0
0.2684 -0.1704 -0.2130 66 106 237 0
0.2739 -0.1712 -0.2140 67 107 238 0
0.2795 -0.1720 -0.2150 68 108 239 0
0.2864 -0.1736 -0.2170 68 108 239 0
0.2921 -0.1744 -0.2180 69 109 240 0
0.2978 -0.1752 -0.2190 70 109 240 0
0.3036 -0.1760 -0.2200 71 110 241 0
0.3108 -0.1776 -0.2220 71 110 241 0
0.3167 -0.1784 -0.2230 72 111 242 0
0.3226 -0.1792 -0.2240 72 111 242 0
0.3285 -0.1800 -0.2250 73 112 243 0
0.3345 -0.1808 -0.2260 74 113 242 0
0.3405 -0.1816 -0.2270 74 113 242 0
0.3466 -0.1824 -0.2280 74 113 242 0
0.3527 -0.1832 -0.2290 75 114 243 0
0.3588 -0.1840 -0.2300 75 116 244 0
0.3650 -0.1848 -0.2310 76 117 245 0
0.3712 -0.1856 -0.2320 76 117 243 0
0.3775 -0.1864 -0.2330 77 118 244 0
0.3838 -0.1872 -0.2340 78 119 245 0
0.3901 -0.1880 -0.2350 78 119 245 0
0.3965 -0.1888 -0.2360 79 120 246 0
0.4029 -0.1896 -0.2370 79 120 246 0
0.4094 -0.1904 -0.2380 80 121 245 0
0.4141 -0.1904 -0.2380 80 121 245 0
0.4206 -0.1912 -0.2390 81 122 246 0
0.4272 -0.1920 -0.2400 81 122 246 0
0.4338 -0.1928 -0.2410 83 123 247 0
0.4404 -0.1936 -0.2420 83 123 247 0
0.4471 -0.1944 -0.2430 84 122 245 0
0.4520 -0.1944 -0.2430 85 123 246 0
0.4587 -0.1952 -0.2440 86 124 247 0
0.4655 -0.1960 -0.2450 87 125 248 0
0.4723 -0.1968 -0.2460 90 126 249 0
0.4792 -0.1976 -0.2470 90 126 249 0
0.4861 -0.1984 -0.2480 92 126 250 0
0.4910 -0.1984 -0.2480 92 126 250 0
0.4980 -0.1992 -0.2490 95 127 250 0
0.5050 -0.2000 -0.2500 97 127 251 0
0.5120 -0.2008 -0.2510 97 127 251 0
0.5171 -0.2008 -0.2510 97 127 251 0
0.5242 -0.2016 -0.2520 98 128 252 0
0.5313 -0.2024 -0.2530 98 128 252 0
0.5364 -0.2024 -0.2530 102 127 253 0
0.5436 -0.2032 -0.2540 102 127 253 0
0.5508 -0.2040 -0.2550 105 126 251 0
0.5559 -0.2040 -0.2550 106 127 252 0
0.5610 -0.2040 -0.2550 110 128 254 0
0.5661 -0.2040 -0.2550 113 128 255 0
0.5712 -0.2040 -0.2550 115 128 255 0
0.5763 -0.2040 -0.2550 123 132 227 0
0.0000 -0.0000 -0.0000 0 0 28 0
0.0023 -0.0008 -0.0010 0 0 0 0
0.0000 -0.0000 -0.0000 1 0 2 0
0.0000 -0.0000 -0.0000 0 0 2 0
0.0000 -0.0000 -0.0000 0 0 0 0
0.0000 -0.0000 -0.0000 0 1 0 0
0.0000 -0.0000 -0.0000 0 0 2 0
0.0000 -0.0000 -0.0000 0 0 2 0
0.0000 -0.0000 -0.0000 0 1 0 0
0.0000 -0.0000 -0.0000 0 0 0 0
0.0000 -0.0000 -0.0000 1 0 0 0
0.0000 -0.0000 -0.0000 1 0 0 0
0.0000 -0.0000 -0.0000 0 0 2 0
0.0000 -0.0000 -0.0000 0 0 4 0
-0.0000 -0.0000 -0.0000 0 0 0 0
-0.0000 -0.0000 -0.0000 0 0 0 0
-0.0000 -0.0000 -0.0000 0 1 0 0
-0.0000 -0.0000 -0.0000 0 1 0 0
-0.0000 -0.0000 -0.0000 1 0 2 0
-0.0000 -0.0000 -0.0000 1 0 2 0
-0.0000 -0.0000 -0.0000 0 0 0 0
-0.0000 -0.0000 -0.0000 0 1 0 0
-0.0000 -0.0000 -0.0000 0 0 0 0
-0.0000 -0.0000 -0.0000 0 0 28 0
-0.6018 -0.2091 -0.2550 112 133 224 0
-0.5944 -0.2083 -0.2540 109 135 254 0
-0.5916 -0.2091 -0.2550 115 135 255 0
-0.5865 -0.2091 -0.2550 121 136 255 0
-0.5814 -0.2091 -0.2550 127 133 255 0
-0.5763 -0.2091 -0.2550 130 135 255 0
-0.5712 -0.2091 -0.2550 134 136 255 0
-0.5661 -0.2091 -0.2550 135 135 255 0
-0.5610 -0.2091 -0.2550 137 136 255 0
-0.5559 -0.2091 -0.2550 140 135 255 0
-0.5508 -0.2091 -0.2550 142 134 253 0
-0.5457 -0.2091 -0.2550 144 135 254 0
-0.5406 -0.2091 -0.2550 148 135 253 0
-0.5355 -0.2091 -0.2550 148 135 253 0
-0.5304 -0.2091 -0.2550 150 135 252 0
-0.5253 -0.2091 -0.2550 151 136 253 0
-0.5202 -0.2091 -0.2550 153 135 253 0
-0.5131 -0.2083 -0.2540 153 135 253 0
-0.5060 -0.2075 -0.2530 154 135 253 0
-0.5009 -0.2075 -0.2530 154 135 253 0
-0.4939 -0.2066 -0.2520 154 135 251 0
-0.4889 -0.2066 -0.2520 154 135 251 0
-0.4819 -0.2058 -0.2510 155 134 251 0
-0.4750 -0.2050 -0.2500 155 134 251 0
-0.4681 -0.2042 -0.2490 155 134 251 0
-0.4631 -0.2042 -0.2490 156 135 252 0
-0.4563 -0.2034 -0.2480 158 135 252 0
-0.4514 -0.2034 -0.2480 157 134 251 0
-0.4446 -0.2025 -0.2470 157 134 251 0
-0.4379 -0.2017 -0.2460 157 134 251 0
-0.4330 -0.2017 -0.2460 158 133 251 0
-0.4263 -0.2009 -0.2450 158 133 251 0
-0.4197 -0.2001 -0.2440 158 133 251 0
-0.4148 -0.2001 -0.2440 158 133 251 0
-0.4082 -0.1993 -0.2430 160 132 251 0
-0.4017 -0.1984 -0.2420 160 132 251 0
-0.3969 -0.1984 -0.2420 159 131 250 0
-0.3904 -0.1976 -0.2410 159 131 250 0
-0.3840 -0.1968 -0.2400 160 131 249 0
-0.3792 -0.1968 -0.2400 161 132 250 0
-0.3728 -0.1960 -0.2390 162 131 250 0
-0.3665 -0.1952 -0.2380 162 131 250 0
